-3.225187659263610840e-01 5.988640710711479187e-02 -1.365774273872375488e-01
-4.803713560104370117e-01 -1.501649022102355957e-01 -1.092007830739021301e-01
1.402090769261121750e-02 -4.013984799385070801e-01 -9.258459508419036865e-02
-1.852793991565704346e-01 1.060177087783813477e-01 -1.216590106487274170e-01
-3.987732827663421631e-01 -3.915297985076904297e-01 -8.780899643898010254e-02
-2.219610810279846191e-01 -2.308087497949600220e-01 4.362484812736511230e-01
-2.533769607543945312e-01 -4.731082320213317871e-01 -9.554287791252136230e-02
-1.816013306379318237e-01 -2.131579071283340454e-01 4.776449799537658691e-01
-2.834751904010772705e-01 -4.529847800731658936e-01 -8.901554346084594727e-02
-4.096122980117797852e-01 8.468434214591979980e-03 -1.050886288285255432e-01
-2.347927838563919067e-01 -2.246135771274566650e-01 4.212306737899780273e-01
-3.961415886878967285e-01 -3.883936405181884766e-01 -8.691661059856414795e-02
-4.750784635543823242e-01 -1.582783758640289307e-01 -1.048605889081954956e-01
-3.320553600788116455e-01 5.148271098732948303e-02 -1.349569112062454224e-01
-2.228446006774902344e-01 -2.302741110324859619e-01 4.386109411716461182e-01
8.233939111232757568e-02 -2.738664746284484863e-01 -1.174609959125518799e-01
-2.374185621738433838e-01 -2.220669388771057129e-01 4.184676706790924072e-01
-9.921559691429138184e-02 -4.174556136131286621e-01 -1.170804575085639954e-01
-2.513231039047241211e-01 -2.281050235033035278e-01 4.486377239227294922e-01
8.612608164548873901e-02 -1.571165919303894043e-01 -9.630201011896133423e-02
-4.467033147811889648e-01 -2.854712903499603271e-01 -1.181730553507804871e-01
-2.695478498935699463e-02 -4.086886048316955566e-01 -8.415722846984863281e-02
6.895139813423156738e-02 -2.462629526853561401e-01 -1.141482964158058167e-01
1.908266730606555939e-02 -1.016973619698546827e-04 -1.198943555355072021e-01
-8.337387815117835999e-03 -3.971129655838012695e-01 -8.954773098230361938e-02
-2.235198169946670532e-01 -2.376514673233032227e-01 4.493407607078552246e-01
3.119711391627788544e-02 -1.341935340315103531e-02 -1.225587204098701477e-01
-1.036547422409057617e-01 6.968323141336441040e-02 -1.593250185251235962e-01
-9.566891193389892578e-02 7.493591308593750000e-02 -1.633900105953216553e-01
-1.883952617645263672e-01 1.114520281553268433e-01 -1.230235919356346130e-01
4.488379135727882385e-02 -3.171281889081001282e-02 -1.187247931957244873e-01
-8.379403501749038696e-02 5.581588670611381531e-02 -1.558395475149154663e-01
-8.417333662509918213e-02 8.134077489376068115e-02 -1.676021218299865723e-01
-2.435652166604995728e-01 -4.558249115943908691e-01 -9.020666033029556274e-02
-2.332137525081634521e-01 -2.293136864900588989e-01 4.217291176319122314e-01
-3.453159034252166748e-01 6.890117377042770386e-02 -1.430170685052871704e-01
-2.124043107032775879e-01 -2.356858402490615845e-01 4.394234120845794678e-01
7.141588628292083740e-02 -2.308906763792037964e-01 -1.119154021143913269e-01
-1.805610507726669312e-01 -2.072363644838333130e-01 4.656981229782104492e-01
-1.451095491647720337e-01 -2.102832496166229248e-01 4.738964438438415527e-01
-1.125223115086555481e-01 -4.380454123020172119e-01 -1.179966032505035400e-01
-2.392744123935699463e-01 -2.484095245599746704e-01 4.277625679969787598e-01
-2.229933142662048340e-01 -2.172455191612243652e-01 4.243102967739105225e-01
-4.726791381835937500e-01 -1.199058443307876587e-01 -1.095099821686744690e-01
-2.379594892263412476e-01 -4.672869443893432617e-01 -9.027461707592010498e-02
-3.087368905544281006e-01 6.533470004796981812e-02 -1.339476853609085083e-01
-2.420180439949035645e-01 -2.223820984363555908e-01 4.251258671283721924e-01
-2.216673791408538818e-01 -2.170058339834213257e-01 4.211759865283966064e-01
-2.642813622951507568e-01 -4.905750751495361328e-01 -1.009258180856704712e-01
-2.289407998323440552e-01 -2.324749678373336792e-01 4.365476965904235840e-01
-2.199413776397705078e-01 -2.313151210546493530e-01 4.269152879714965820e-01
-2.386351972818374634e-01 -2.154317498207092285e-01 4.137766659259796143e-01
-4.519899487495422363e-01 -3.060634732246398926e-01 -1.193696483969688416e-01
-2.163872420787811279e-01 -2.450996786355972290e-01 4.279271960258483887e-01
-1.680327951908111572e-01 -2.096959203481674194e-01 4.605730473995208740e-01
-1.812783479690551758e-01 -2.028123736381530762e-01 4.756515920162200928e-01
4.870980978012084961e-02 -1.723182015120983124e-02 -1.255177706480026245e-01
-2.672395408153533936e-01 -4.658019840717315674e-01 -9.484879672527313232e-02
-2.374639213085174561e-01 -2.120279222726821899e-01 4.423928558826446533e-01
-3.542734086513519287e-01 4.245585575699806213e-02 -1.291988790035247803e-01
-1.475798785686492920e-01 -1.960133314132690430e-01 4.713462591171264648e-01
3.171054413542151451e-03 -3.985707163810729980e-01 -9.169513732194900513e-02
-2.210045158863067627e-01 -2.307706475257873535e-01 4.325132369995117188e-01
-2.788398265838623047e-01 -4.444593787193298340e-01 -8.813155442476272583e-02
-2.395041137933731079e-01 -2.413093894720077515e-01 4.236981272697448730e-01
5.727540329098701477e-02 -2.822403013706207275e-01 -1.060182303190231323e-01
5.255901440978050232e-02 -3.506349632516503334e-03 -1.309814602136611938e-01
-7.291731983423233032e-02 4.604448378086090088e-02 -1.492309421300888062e-01
-4.740183353424072266e-01 -1.404703706502914429e-01 -1.097588688135147095e-01
-2.552526891231536865e-01 -2.308753281831741333e-01 4.248767197132110596e-01
-9.467824548482894897e-02 -4.260464012622833252e-01 -1.193545162677764893e-01
-4.103688597679138184e-01 -3.643158674240112305e-01 -8.402637392282485962e-02
-9.227261692285537720e-02 -4.244350790977478027e-01 -1.188370361924171448e-01
-2.183057665824890137e-01 -2.169728279113769531e-01 4.367964863777160645e-01
-1.900874823331832886e-01 1.045689731836318970e-01 -1.203998252749443054e-01
-2.345823049545288086e-01 -2.519173026084899902e-01 4.324828982353210449e-01
-2.380954325199127197e-01 -2.474094331264495850e-01 4.273043572902679443e-01
-4.427111744880676270e-01 -3.142235875129699707e-01 -1.136471107602119446e-01
-1.516029387712478638e-01 -2.151754051446914673e-01 4.536581039428710938e-01
4.277512803673744202e-02 -3.416807204484939575e-02 -1.174494847655296326e-01
-1.615551412105560303e-01 -2.262015044689178467e-01 4.575017988681793213e-01
9.782052040100097656e-02 -2.601777911186218262e-01 -1.234188526868820190e-01
-2.354914695024490356e-01 -2.262810617685317993e-01 4.227249324321746826e-01
-1.780952811241149902e-01 1.027744114398956299e-01 -1.205978542566299438e-01
-1.446305066347122192e-01 -1.976918876171112061e-01 4.780635833740234375e-01
-9.377544373273849487e-02 4.847462475299835205e-02 -1.527317911386489868e-01
-5.000000000000000000e-01 -1.360423415899276733e-01 -1.184221729636192322e-01
-3.420478105545043945e-01 8.431070297956466675e-02 -1.489671766757965088e-01
-2.476119697093963623e-01 -2.394997775554656982e-01 4.297840893268585205e-01
-2.588246464729309082e-01 -4.614089131355285645e-01 -9.362386912107467651e-02
-4.947896897792816162e-01 -1.348245143890380859e-01 -1.170701980590820312e-01
-3.282878398895263672e-01 5.697553977370262146e-02 -1.366291195154190063e-01
-4.490795433521270752e-01 -2.763022780418395996e-01 -1.174781918525695801e-01
-1.671244353055953979e-01 -2.107582241296768188e-01 4.629238843917846680e-01
-3.888616105541586876e-03 -4.087162911891937256e-01 -9.230367094278335571e-02
-2.464819997549057007e-01 -2.446943819522857666e-01 4.295921027660369873e-01
-1.766510307788848877e-01 -2.038173079490661621e-01 4.830638170242309570e-01
9.333816170692443848e-02 -2.742742896080017090e-01 -1.213322803378105164e-01
-4.893854558467864990e-01 -1.417421847581863403e-01 -1.142387017607688904e-01
-2.563851177692413330e-01 -1.916083544492721558e-01 4.757356345653533936e-01
-1.384402513504028320e-01 -2.089040428400039673e-01 4.710447192192077637e-01
8.652553707361221313e-02 -1.794049292802810669e-01 -9.319166094064712524e-02
-1.656705886125564575e-01 -2.207731902599334717e-01 4.534273445606231689e-01
-1.583330780267715454e-01 -2.004164755344390869e-01 4.697718620300292969e-01
-2.284527719020843506e-01 -2.253838628530502319e-01 4.322372376918792725e-01
-4.423029720783233643e-01 -3.093743026256561279e-01 -1.148442253470420837e-01
-2.079657465219497681e-01 -2.061160802841186523e-01 4.703599512577056885e-01
-4.002946317195892334e-01 -3.860134780406951904e-01 -8.803335577249526978e-02
-4.832865297794342041e-01 -1.209479272365570068e-01 -1.127797141671180725e-01
-4.102987647056579590e-01 -6.450862437486648560e-02 -1.669311076402664185e-01
5.209662485867738724e-03 -3.783116638660430908e-01 -8.602479100227355957e-02
-2.562285661697387695e-01 -1.932098865509033203e-01 4.773288071155548096e-01
7.166489958763122559e-02 -2.419127523899078369e-01 -1.141831502318382263e-01
-2.553660869598388672e-01 -2.299666255712509155e-01 4.499620497226715088e-01
-3.551800251007080078e-01 5.302325263619422913e-02 -1.342661827802658081e-01
-2.271753363311290741e-02 -4.014091491699218750e-01 -8.596817404031753540e-02
-1.576826870441436768e-01 -1.950260847806930542e-01 4.846866130828857422e-01
7.332945615053176880e-02 -2.339101880788803101e-01 -1.129435971379280090e-01
-2.288185954093933105e-01 -2.131474912166595459e-01 4.139461815357208252e-01
8.599950373172760010e-02 -1.572529375553131104e-01 -9.627649933099746704e-02
9.960065595805644989e-03 -3.761164844036102295e-01 -8.501228690147399902e-02
-2.328625470399856567e-01 -2.356546223163604736e-01 4.187832474708557129e-01
-1.789928525686264038e-01 1.005743891000747681e-01 -1.197920292615890503e-01
-8.546876907348632812e-02 5.594732984900474548e-02 -1.560083478689193726e-01
-9.276118129491806030e-02 6.399979442358016968e-02 -1.594865173101425171e-01
7.113118469715118408e-02 -2.532552182674407959e-01 -1.152031719684600830e-01
-9.843785315752029419e-02 -4.203219413757324219e-01 -1.178167313337326050e-01
-1.004006639122962952e-01 -4.327010810375213623e-01 -1.206751018762588501e-01
-2.325217276811599731e-01 -2.166783362627029419e-01 4.480307996273040771e-01
-2.366849184036254883e-01 -2.431212812662124634e-01 4.153857231140136719e-01
-4.574714228510856628e-03 -3.976863324642181396e-01 -9.038568288087844849e-02
-2.828747332096099854e-01 -4.644093811511993408e-01 -9.195988625288009644e-02
-2.260456383228302002e-01 -2.384553700685501099e-01 4.257797896862030029e-01
-3.239549398422241211e-01 6.874038279056549072e-02 -1.396121531724929810e-01
-1.558811366558074951e-01 -2.235541492700576782e-01 4.566852748394012451e-01
-2.369814217090606689e-01 -2.368199229240417480e-01 4.385646283626556396e-01
-2.519291639328002930e-01 -2.195120006799697876e-01 4.310865998268127441e-01
-1.231415867805480957e-01 -4.317868053913116455e-01 -1.133846044540405273e-01
-2.198722809553146362e-01 -2.206522673368453979e-01 4.454132616519927979e-01
-2.725662291049957275e-01 -4.813219010829925537e-01 -9.821556508541107178e-02
5.808988586068153381e-02 -8.579816669225692749e-03 -1.301113516092300415e-01
-1.727489680051803589e-01 -2.263738512992858887e-01 4.615048170089721680e-01
2.242261543869972229e-02 -1.100604701787233353e-02 -1.203241422772407532e-01
-1.469399929046630859e-01 -1.986839920282363892e-01 4.665766954421997070e-01
-2.427049279212951660e-01 -2.193784266710281372e-01 4.147590398788452148e-01
-2.166375815868377686e-01 -2.152098417282104492e-01 4.280151724815368652e-01
7.761713583022356033e-03 -3.949055075645446777e-01 -9.096050262451171875e-02
-2.484505027532577515e-01 -4.571766555309295654e-01 -9.142809361219406128e-02
-4.363323450088500977e-01 -3.162151575088500977e-01 -1.103787422180175781e-01
-2.305133491754531860e-01 -2.304666042327880859e-01 4.218739271163940430e-01
-2.316962927579879761e-01 -2.147289216518402100e-01 4.190197587013244629e-01
-3.903998732566833496e-01 -3.925643861293792725e-01 -8.471188694238662720e-02
-2.207849174737930298e-01 -2.215893715620040894e-01 4.470562040805816650e-01
-2.560615241527557373e-01 -2.298310250043869019e-01 4.542807042598724365e-01
-1.704419106245040894e-01 -2.181248515844345093e-01 4.678147733211517334e-01
-3.853489160537719727e-01 -3.915316760540008545e-01 -8.283309638500213623e-02
-2.137235701084136963e-01 -2.200881689786911011e-01 4.349377751350402832e-01
-2.039611190557479858e-01 -2.092742770910263062e-01 4.745136201381683350e-01
4.638069123029708862e-02 -4.482990503311157227e-02 -1.121442914009094238e-01
-2.495677024126052856e-01 -1.953513771295547485e-01 4.734128415584564209e-01
-2.427114546298980713e-01 -2.263425141572952271e-01 4.248089790344238281e-01
-2.239875793457031250e-01 -2.508998215198516846e-01 4.418322741985321045e-01
1.880594342947006226e-02 -7.958609610795974731e-03 -1.194615811109542847e-01
-8.526641130447387695e-02 -4.145365059375762939e-01 -1.152761727571487427e-01
-2.253264933824539185e-01 -2.280679792165756226e-01 4.216935932636260986e-01
-8.262039721012115479e-02 4.923628643155097961e-02 -1.525909453630447388e-01
4.233194887638092041e-02 2.716580173000693321e-03 -1.285447180271148682e-01
6.779492646455764771e-02 -2.786680161952972412e-01 -1.108622178435325623e-01
4.157740250229835510e-02 -3.424970060586929321e-02 -1.173432543873786926e-01
-3.281163573265075684e-01 5.868886411190032959e-02 -1.372100263833999634e-01
-9.257496148347854614e-02 7.152707129716873169e-02 -1.627449095249176025e-01
-1.703511625528335571e-01 -2.209686338901519775e-01 4.907551109790802002e-01
-8.091802150011062622e-02 7.165870070457458496e-02 -1.631499379873275757e-01
-2.153104543685913086e-01 -2.445070594549179077e-01 4.319964051246643066e-01
-2.173636406660079956e-01 -2.473555207252502441e-01 4.303024709224700928e-01
-4.794944822788238525e-01 -1.449201554059982300e-01 -1.104894652962684631e-01
-3.336150348186492920e-01 8.648223429918289185e-02 -1.468219757080078125e-01
4.424935951828956604e-02 -1.168617513030767441e-03 -1.289007961750030518e-01
-2.241357266902923584e-01 -2.281350493431091309e-01 4.157280325889587402e-01
-2.583665549755096436e-01 -2.481871396303176880e-01 4.379594326019287109e-01
-1.973806023597717285e-01 9.965060651302337646e-02 -1.170043498277664185e-01
-2.382405549287796021e-01 -2.442614734172821045e-01 4.246564507484436035e-01
-1.571961641311645508e-01 -2.241906076669692993e-01 4.660652577877044678e-01
-1.551807373762130737e-01 -2.218145728111267090e-01 4.558897912502288818e-01
-1.719738095998764038e-01 1.074599847197532654e-01 -1.214962601661682129e-01
8.788617700338363647e-02 -2.712307274341583252e-01 -1.199973002076148987e-01
-3.955545723438262939e-01 -3.970442116260528564e-01 -8.609420806169509888e-02
-4.875843822956085205e-01 -1.580104827880859375e-01 -1.076684668660163879e-01
-3.849261999130249023e-01 -3.895802199840545654e-01 -8.282969892024993896e-02
-2.384160906076431274e-01 -2.191924452781677246e-01 4.242305755615234375e-01
-2.278789728879928589e-01 -2.370946407318115234e-01 4.642173647880554199e-01
-2.341043353080749512e-01 -2.368837743997573853e-01 4.116694033145904541e-01
-1.651463657617568970e-01 -1.979528069496154785e-01 4.865221977233886719e-01
-2.458723336458206177e-01 -4.595658779144287109e-01 -9.132239222526550293e-02
-3.294823467731475830e-01 7.013187557458877563e-02 -1.414709687232971191e-01
-3.137040138244628906e-01 7.219281792640686035e-02 -1.370548158884048462e-01
-4.740562736988067627e-01 -1.437573283910751343e-01 -1.091482937335968018e-01
-1.712403744459152222e-01 -2.013975828886032104e-01 4.861749112606048584e-01
-3.418246507644653320e-01 4.569020494818687439e-02 -1.324940174818038940e-01
-4.106980860233306885e-01 -6.863032281398773193e-02 -1.658306419849395752e-01
-2.380278408527374268e-01 -2.311476469039916992e-01 4.311079680919647217e-01
7.718837261199951172e-02 -2.440310716629028320e-01 -1.157477945089340210e-01
-2.226158380508422852e-01 -2.459923774003982544e-01 4.389111697673797607e-01
-2.249185889959335327e-01 -2.285642772912979126e-01 4.251667857170104980e-01
5.014688149094581604e-02 -2.766523510217666626e-02 -1.209642291069030762e-01
-2.321915775537490845e-01 -2.219395488500595093e-01 4.292114675045013428e-01
-1.547197550535202026e-01 -2.035343647003173828e-01 4.819279909133911133e-01
-3.292023539543151855e-01 7.832277566194534302e-02 -1.438338011503219604e-01
-2.276044785976409912e-01 -1.957291364669799805e-01 4.897056519985198975e-01
-1.648549288511276245e-01 -2.239466756582260132e-01 4.696059525012969971e-01
-7.782645523548126221e-02 6.331595033407211304e-02 -1.587474048137664795e-01
1.133796852082014084e-02 -7.085065008141100407e-04 -1.170248463749885559e-01
-2.540110051631927490e-01 -2.285238206386566162e-01 4.616326391696929932e-01
-2.046769410371780396e-01 -2.089543938636779785e-01 4.739514291286468506e-01
-2.204162329435348511e-01 -2.191521525382995605e-01 4.203380644321441650e-01
-2.212700992822647095e-01 -2.214929014444351196e-01 4.128417968750000000e-01
-4.042094051837921143e-01 -3.770289719104766846e-01 -8.730528503656387329e-02
-2.222045361995697021e-01 -2.415462434291839600e-01 4.482778906822204590e-01
-3.405433595180511475e-01 4.321390017867088318e-02 -1.315130442380905151e-01
-2.321504652500152588e-01 -2.195469141006469727e-01 4.249818623065948486e-01
-2.322095632553100586e-01 -2.490404993295669556e-01 4.314683377742767334e-01
3.646735846996307373e-02 -1.598149724304676056e-02 -1.233582571148872375e-01
-3.550287485122680664e-01 5.671262368559837341e-02 -1.361399292945861816e-01
-1.680883020162582397e-01 -2.212845683097839355e-01 4.978213906288146973e-01
-2.585164010524749756e-01 -4.583756923675537109e-01 -9.291726350784301758e-02
-4.515253603458404541e-01 -2.977686822414398193e-01 -1.200179234147071838e-01
-2.356193214654922485e-01 -1.910566836595535278e-01 4.924529790878295898e-01
-2.332044988870620728e-01 -2.490794211626052856e-01 4.308804571628570557e-01
-2.118202000856399536e-01 -2.292224764823913574e-01 4.327962398529052734e-01
-4.591968357563018799e-01 -2.859822213649749756e-01 -1.214161664247512817e-01
-2.489064037799835205e-01 -4.693189263343811035e-01 -9.380333125591278076e-02
3.017012774944305420e-02 -3.096741158515214920e-03 -1.238046586513519287e-01
-2.636104524135589600e-01 -2.548600733280181885e-01 4.406396150588989258e-01
-2.623093426227569580e-01 -2.474766075611114502e-01 4.409433901309967041e-01
7.717340439558029175e-02 -2.312006056308746338e-01 -1.128952354192733765e-01
-1.568286716938018799e-01 -1.925462186336517334e-01 4.805124104022979736e-01
3.430171310901641846e-02 -3.788198810070753098e-03 -1.251818537712097168e-01
-2.362843155860900879e-01 -2.225492447614669800e-01 4.438404738903045654e-01
-3.243947327136993408e-01 6.876625120639801025e-02 -1.397379040718078613e-01
-3.385905623435974121e-01 5.728793889284133911e-02 -1.376479715108871460e-01
-1.575888544321060181e-01 -2.026131153106689453e-01 4.800094366073608398e-01
4.930897057056427002e-02 -2.234604582190513611e-02 -1.234042868018150330e-01
-4.449216425418853760e-01 -2.846592962741851807e-01 -1.176411882042884827e-01
-9.561818093061447144e-02 6.782022118568420410e-02 -1.606696248054504395e-01
7.030001282691955566e-02 -2.711199223995208740e-01 -1.136572957038879395e-01
1.022305488586425781e-01 -1.665470451116561890e-01 -1.005135402083396912e-01
-1.116748601198196411e-01 -4.316993951797485352e-01 -1.178020611405372620e-01
-8.506842702627182007e-02 -4.246030747890472412e-01 -1.179569363594055176e-01
-1.576509773731231689e-01 -2.022371888160705566e-01 4.783385097980499268e-01
-2.240153402090072632e-01 -2.180316299200057983e-01 4.274063408374786377e-01
-2.332677245140075684e-01 -2.249032407999038696e-01 4.335694611072540283e-01
-2.287981808185577393e-01 -2.288202345371246338e-01 4.511498808860778809e-01
4.944718256592750549e-02 -2.200976945459842682e-02 -1.235686466097831726e-01
-2.713519148528575897e-02 -4.029715061187744141e-01 -8.440838009119033813e-02
-2.289752066135406494e-01 -2.321749478578567505e-01 4.569168686866760254e-01
8.078480511903762817e-02 -2.394076287746429443e-01 -1.155948713421821594e-01
-4.583055973052978516e-01 -3.039558827877044678e-01 -1.220836341381072998e-01
-2.135821729898452759e-01 -2.217079699039459229e-01 4.379183948040008545e-01
-2.304985821247100830e-01 -2.237711548805236816e-01 4.143004119396209717e-01
-1.753888577222824097e-01 1.041903048753738403e-01 -1.209079101681709290e-01
-1.505381017923355103e-01 -2.043208032846450806e-01 4.773478806018829346e-01
-2.548417747020721436e-01 -2.292365133762359619e-01 4.548501372337341309e-01
6.238160282373428345e-02 -2.655984163284301758e-01 -1.120121181011199951e-01
-8.743407577276229858e-02 8.218390494585037231e-02 -1.677306294441223145e-01
-2.208616584539413452e-01 -2.399514317512512207e-01 4.378556907176971436e-01
3.544000908732414246e-02 -2.295984700322151184e-02 -1.210013255476951599e-01
-2.352766394615173340e-01 -2.285211980342864990e-01 4.232359230518341064e-01
-1.061337813735008240e-01 6.343644857406616211e-02 -1.565130650997161865e-01
-2.246530354022979736e-01 -2.392941415309906006e-01 4.282968342304229736e-01
-2.158987969160079956e-01 -2.291106283664703369e-01 4.158975780010223389e-01
-1.815577149391174316e-01 -2.059797346591949463e-01 4.719437062740325928e-01
-4.689633548259735107e-01 -2.996810674667358398e-01 -1.257345527410507202e-01
6.505405902862548828e-02 -2.457104325294494629e-01 -1.132257506251335144e-01
-3.303709030151367188e-01 7.446260750293731689e-02 -1.430881321430206299e-01
-2.615365386009216309e-01 -4.841671288013458252e-01 -9.931802749633789062e-02
-3.148036003112792969e-01 7.467467337846755981e-02 -1.379343718290328979e-01
-9.244334697723388672e-02 6.930752843618392944e-02 -1.618322879076004028e-01
-4.435850083827972412e-01 -2.919167578220367432e-01 -1.174950972199440002e-01
9.881025552749633789e-02 -2.568825185298919678e-01 -1.230849251151084900e-01
-2.170229554176330566e-01 -2.179706096649169922e-01 4.367854595184326172e-01
-1.748772412538528442e-01 -2.103353142738342285e-01 4.517972767353057861e-01
-4.655355513095855713e-01 -2.991260886192321777e-01 -1.247300207614898682e-01
-2.288814783096313477e-01 -2.334091961383819580e-01 4.359625875949859619e-01
-1.650328338146209717e-01 -2.228226661682128906e-01 4.548027217388153076e-01
-3.408344984054565430e-01 5.087935924530029297e-02 -1.348379701375961304e-01
5.533224716782569885e-02 -1.809966377913951874e-02 -1.257922947406768799e-01
-1.811210215091705322e-01 -2.056838721036911011e-01 4.685780704021453857e-01
-2.180890142917633057e-01 -2.166597843170166016e-01 4.357204139232635498e-01
-1.766336560249328613e-01 -2.083190083503723145e-01 4.536954164505004883e-01
6.836697459220886230e-03 -3.736715018749237061e-01 -8.449117094278335571e-02
-2.411350011825561523e-01 -2.219826430082321167e-01 4.352262616157531738e-01
1.574049331247806549e-02 -7.131997495889663696e-03 -1.184921041131019592e-01
4.990690201520919800e-02 -3.650993853807449341e-02 -1.164632439613342285e-01
-1.721452027559280396e-01 -2.087651789188385010e-01 4.696475863456726074e-01
-2.564540505409240723e-01 -4.846979081630706787e-01 -9.848994016647338867e-02
-1.526152528822422028e-02 -3.984330594539642334e-01 -8.806401491165161133e-02
-1.739450991153717041e-01 1.076276227831840515e-01 -1.219372525811195374e-01
-3.957126140594482422e-01 -5.888597294688224792e-02 -1.624649465084075928e-01
-2.375697642564773560e-01 -2.195802628993988037e-01 4.308844804763793945e-01
-3.152752816677093506e-01 5.742921680212020874e-02 -1.342078745365142822e-01
-1.495425403118133545e-01 -1.964641213417053223e-01 4.657436907291412354e-01
-2.365744709968566895e-01 -2.280834913253784180e-01 4.326343238353729248e-01
-1.420053839683532715e-02 -4.061582386493682861e-01 -8.894035965204238892e-02
-1.139643639326095581e-01 6.311830133199691772e-02 -1.539315879344940186e-01
-3.235471844673156738e-01 7.955146580934524536e-02 -1.421541124582290649e-01
9.974739700555801392e-02 -1.623987853527069092e-01 -1.002641767263412476e-01
-1.765891760587692261e-01 -2.130384296178817749e-01 4.566113948822021484e-01
-2.213603407144546509e-01 -2.350830882787704468e-01 4.279054999351501465e-01
-2.194181382656097412e-01 -2.440015077590942383e-01 4.195034205913543701e-01
-4.536129534244537354e-01 -2.739118337631225586e-01 -1.177894920110702515e-01
-4.881658852100372314e-01 -1.328761577606201172e-01 -1.151344254612922668e-01
-2.511506080627441406e-01 -2.498311698436737061e-01 4.335371553897857666e-01
-2.388903647661209106e-01 -2.361328601837158203e-01 4.346075952053070068e-01
-3.121885359287261963e-01 5.881059914827346802e-02 -1.337097883224487305e-01
-4.328406751155853271e-01 -3.030569255352020264e-01 -1.126508638262748718e-01
-2.230466455221176147e-01 -2.153427153825759888e-01 4.217669367790222168e-01
-3.226266205310821533e-01 5.612428486347198486e-02 -1.354292482137680054e-01
-2.504292726516723633e-01 -2.459372431039810181e-01 4.326343238353729248e-01
-2.552274763584136963e-01 -2.413791418075561523e-01 4.367255866527557373e-01
-2.648565173149108887e-01 -4.926178753376007080e-01 -1.013455316424369812e-01
-4.851583838462829590e-01 -1.288164407014846802e-01 -1.141819208860397339e-01
-2.445105910301208496e-01 -2.120606601238250732e-01 4.318844079971313477e-01
-2.373192161321640015e-01 -4.741443991661071777e-01 -9.085357934236526489e-02
-2.335541248321533203e-01 -2.263123095035552979e-01 4.144865870475769043e-01
-1.403860002756118774e-02 -4.017811417579650879e-01 -8.870676904916763306e-02
-2.437667995691299438e-01 -2.260616719722747803e-01 4.521386921405792236e-01
-4.678948819637298584e-01 -1.208848729729652405e-01 -1.082059144973754883e-01
-2.267760187387466431e-01 -2.540721595287322998e-01 4.407899081707000732e-01
-3.398363888263702393e-01 7.272694259881973267e-02 -1.443618834018707275e-01
3.977989777922630310e-02 -1.595481298863887787e-02 -1.241813972592353821e-01
6.968148797750473022e-02 -2.344985604286193848e-01 -1.124518439173698425e-01
-2.138979882001876831e-01 -2.201813757419586182e-01 4.355094432830810547e-01
-3.352898061275482178e-01 8.352116495370864868e-02 -1.469494998455047607e-01
3.333191573619842529e-02 -1.247780956327915192e-02 -1.233730465173721313e-01
-2.382968962192535400e-01 -2.202336639165878296e-01 4.326159656047821045e-01
-1.724455952644348145e-01 -2.229390740394592285e-01 4.571971893310546875e-01
-1.702889502048492432e-01 -2.215343713760375977e-01 4.725820720195770264e-01
-2.122627496719360352e-01 -2.302326709032058716e-01 4.292799532413482666e-01
-1.895918995141983032e-01 -2.054744809865951538e-01 4.674013257026672363e-01
-2.377864122390747070e-01 -2.493508458137512207e-01 4.199300706386566162e-01
-2.441753745079040527e-01 -2.129500061273574829e-01 4.275823533535003662e-01
-1.598970144987106323e-01 -2.179569751024246216e-01 4.601203799247741699e-01
-2.295730859041213989e-01 -2.272846996784210205e-01 4.349831938743591309e-01
-2.706607878208160400e-01 -4.713815748691558838e-01 -9.606549888849258423e-02
-4.605343937873840332e-01 -2.800117731094360352e-01 -1.204260960221290588e-01
-1.636665612459182739e-01 -2.289366275072097778e-01 4.745356738567352295e-01
-2.209062874317169189e-01 -2.272285819053649902e-01 4.292844831943511963e-01
-4.107835292816162109e-01 -3.665589988231658936e-01 -8.471637219190597534e-02
2.479808591306209564e-02 -6.062137894332408905e-03 -1.216466575860977173e-01
9.221752732992172241e-02 -2.487786859273910522e-01 -1.200825348496437073e-01
-8.471027761697769165e-02 8.120507746934890747e-02 -1.675846427679061890e-01
-1.716840416193008423e-01 -2.168706208467483521e-01 4.785758256912231445e-01
-2.741211056709289551e-01 -4.598159790039062500e-01 -9.263765811920166016e-02
-2.639692425727844238e-01 -4.582882821559906006e-01 -9.305127710103988647e-02
-2.557175159454345703e-01 -4.822491109371185303e-01 -9.788988530635833740e-02
5.557830631732940674e-02 1.632227562367916107e-03 -1.326248347759246826e-01
8.622159808874130249e-02 -2.582078576087951660e-01 -1.199138015508651733e-01
-1.720751821994781494e-01 -2.186522483825683594e-01 4.768453836441040039e-01
-1.664874553680419922e-01 -2.116804718971252441e-01 4.922162890434265137e-01
-2.323160469532012939e-01 -2.163992226123809814e-01 4.477387368679046631e-01
-2.291398495435714722e-01 -2.340745776891708374e-01 4.100579023361206055e-01
-1.183372661471366882e-01 6.660693883895874023e-02 -1.531734317541122437e-01
-2.488774061203002930e-01 -4.578740298748016357e-01 -9.163396805524826050e-02
-1.670905947685241699e-01 -2.114102840423583984e-01 4.481015503406524658e-01
-1.016380190849304199e-01 7.058238983154296875e-02 -1.602323353290557861e-01
7.262190431356430054e-02 -2.516839206218719482e-01 -1.155217736959457397e-01
-4.504358768463134766e-01 -2.659934759140014648e-01 -1.153312548995018005e-01
-3.392874598503112793e-01 7.563361525535583496e-02 -1.454454511404037476e-01
-1.591576635837554932e-01 -2.047395855188369751e-01 4.632995426654815674e-01
-7.797705382108688354e-02 4.882302507758140564e-02 -1.516847312450408936e-01
-2.505460977554321289e-01 -1.916412711143493652e-01 4.838405847549438477e-01
-2.219064682722091675e-01 -2.341465801000595093e-01 4.390575289726257324e-01
-2.460152953863143921e-01 -2.169828414916992188e-01 4.226973354816436768e-01
-4.056989550590515137e-01 -3.842829763889312744e-01 -8.903299272060394287e-02
-2.497815638780593872e-01 -2.274858653545379639e-01 4.496940672397613525e-01
-2.384121119976043701e-01 -2.618663311004638672e-01 4.372322261333465576e-01
9.485973417758941650e-02 -2.667716145515441895e-01 -1.229041740298271179e-01
-1.522721052169799805e-01 -2.275344729423522949e-01 4.603382945060729980e-01
-4.080803990364074707e-01 -7.964488863945007324e-02 -1.601352691650390625e-01
-2.247743010520935059e-01 -2.262756675481796265e-01 4.171061813831329346e-01
-1.565567851066589355e-01 -2.148341238498687744e-01 4.598345160484313965e-01
-3.852881789207458496e-01 -3.949452042579650879e-01 -8.238394558429718018e-02
8.859729766845703125e-02 -2.424143850803375244e-01 -1.178486570715904236e-01
-2.130525112152099609e-01 -2.247555702924728394e-01 4.234515130519866943e-01
-3.367263078689575195e-01 4.581562057137489319e-02 -1.327908188104629517e-01
-1.685402989387512207e-01 -2.084467560052871704e-01 4.646914005279541016e-01
-1.761803179979324341e-01 -2.262679934501647949e-01 4.690978229045867920e-01
4.349139705300331116e-02 4.077090881764888763e-03 -1.289471834897994995e-01
-1.721153259277343750e-01 1.119105368852615356e-01 -1.228593513369560242e-01
-2.522029280662536621e-01 -2.285301834344863892e-01 4.643078148365020752e-01
-2.152625769376754761e-01 -2.446343749761581421e-01 4.348298609256744385e-01
2.224522829055786133e-02 1.521782251074910164e-03 -1.210990250110626221e-01
-1.441725492477416992e-01 -2.072410285472869873e-01 4.601624906063079834e-01
-2.266846448183059692e-01 -2.322692573070526123e-01 4.514341056346893311e-01
-3.978769481182098389e-01 -5.931492894887924194e-02 -1.632195562124252319e-01
-1.442374736070632935e-01 -2.140312343835830688e-01 4.739550650119781494e-01
-2.683734893798828125e-01 -4.889015555381774902e-01 -1.003774404525756836e-01
-3.525728285312652588e-01 7.293966412544250488e-02 -1.442881077527999878e-01
-1.670323163270950317e-01 -2.117419838905334473e-01 4.910249710083007812e-01
-2.561451494693756104e-01 -4.541791975498199463e-01 -9.186171740293502808e-02
-2.434193640947341919e-01 -2.283928692340850830e-01 4.253715276718139648e-01
-1.031446754932403564e-01 5.319089442491531372e-02 -1.535991579294204712e-01
-4.982600510120391846e-01 -1.456622481346130371e-01 -1.150025874376296997e-01
4.560676217079162598e-02 -5.767832975834608078e-03 -1.285170167684555054e-01
-2.419987618923187256e-01 -2.109816968441009521e-01 4.281336963176727295e-01
-1.578912138938903809e-01 -2.050346136093139648e-01 4.902754426002502441e-01
-9.276109188795089722e-02 -4.413189888000488281e-01 -1.229655295610427856e-01
-3.503330945968627930e-01 6.095616519451141357e-02 -1.389450579881668091e-01
-2.505417168140411377e-01 -4.512205123901367188e-01 -9.071543067693710327e-02
3.124651126563549042e-02 -3.190819546580314636e-02 -1.172747910022735596e-01
-3.439668416976928711e-01 8.511702716350555420e-02 -1.495951563119888306e-01
-3.422213494777679443e-01 8.463212847709655762e-02 -1.490951627492904663e-01
-9.029658883810043335e-02 -4.145987033843994141e-01 -1.160081177949905396e-01
-1.394380927085876465e-01 -2.052206844091415405e-01 4.761125743389129639e-01
6.534200161695480347e-02 -2.535831630229949951e-01 -1.136706918478012085e-01
-3.498322665691375732e-01 5.505059659481048584e-02 -1.361258476972579956e-01
-2.819849550724029541e-01 -4.580465853214263916e-01 -9.062905609607696533e-02
6.311348080635070801e-02 -2.744738161563873291e-01 -1.104345321655273438e-01
9.872355498373508453e-03 -3.824950754642486572e-01 -8.709412068128585815e-02
-3.953939080238342285e-01 -3.821758031845092773e-01 -8.629029244184494019e-02
-1.679418236017227173e-01 -2.097467184066772461e-01 4.604156911373138428e-01
-1.507000923156738281e-01 -2.237307131290435791e-01 4.583961069583892822e-01
-2.221588939428329468e-01 -2.332997471094131470e-01 4.392704069614410400e-01
3.914886713027954102e-02 -2.910684980452060699e-02 -1.193309575319290161e-01
-2.320764064788818359e-01 -2.183058708906173706e-01 4.153438508510589600e-01
-3.441926538944244385e-01 5.807544291019439697e-02 -1.380067169666290283e-01
-4.594601988792419434e-01 -2.824568152427673340e-01 -1.207848116755485535e-01
-2.314123660326004028e-01 -2.420793175697326660e-01 4.143299460411071777e-01
5.409240350127220154e-02 -2.817797362804412842e-01 -1.051485762000083923e-01
-4.645037651062011719e-01 -3.053596317768096924e-01 -1.242075636982917786e-01
4.914746433496475220e-02 -5.423235706984996796e-03 -1.296033263206481934e-01
-8.688363432884216309e-02 4.535325989127159119e-02 -1.512331068515777588e-01
-2.669669091701507568e-01 -4.695830345153808594e-01 -9.584250301122665405e-02
-1.810023784637451172e-01 -2.134921550750732422e-01 4.726633131504058838e-01
-2.298681139945983887e-01 -2.291779220104217529e-01 4.538259506225585938e-01
-1.817596107721328735e-01 -2.117207646369934082e-01 4.786659777164459229e-01
-1.473365873098373413e-01 -1.953891515731811523e-01 4.740451872348785400e-01
-2.520459294319152832e-01 -2.284283190965652466e-01 4.487928152084350586e-01
3.335364162921905518e-02 -1.121574081480503082e-02 -1.236474215984344482e-01
-2.336935997009277344e-01 -2.194264829158782959e-01 4.352814853191375732e-01
-2.351241260766983032e-01 -2.247117012739181519e-01 4.222457110881805420e-01
-9.211253374814987183e-02 -4.207757413387298584e-01 -1.178333237767219543e-01
-1.526521742343902588e-01 -2.180036455392837524e-01 4.545692205429077148e-01
-3.400789499282836914e-01 4.772186651825904846e-02 -1.334853172302246094e-01
-1.770535856485366821e-01 -2.025159895420074463e-01 4.798292815685272217e-01
-9.167350828647613525e-02 -4.265580475330352783e-01 -1.193697676062583923e-01
9.103176742792129517e-02 -2.568089663982391357e-01 -1.211933791637420654e-01
-2.410963363945484161e-02 -4.001650810241699219e-01 -8.549674600362777710e-02
2.231546491384506226e-02 -9.928664192557334900e-03 -1.204177364706993103e-01
-2.279751449823379517e-01 -2.595737874507904053e-01 4.432623386383056641e-01
7.752086501568555832e-03 -3.884074687957763672e-01 -8.903647959232330322e-02
-1.559868901968002319e-01 -2.336880117654800415e-01 4.752005636692047119e-01
-1.637872606515884399e-01 -2.231859862804412842e-01 4.678775072097778320e-01
-4.010348320007324219e-01 -3.757753074169158936e-01 -8.655981719493865967e-02
-3.391478061676025391e-01 4.460726678371429443e-02 -1.321999877691268921e-01
-4.590832889080047607e-01 -3.029220402240753174e-01 -1.224668323993682861e-01
-1.990881711244583130e-01 -2.104137837886810303e-01 4.752475619316101074e-01
-4.729612469673156738e-01 -1.227361857891082764e-01 -1.099408119916915894e-01
-1.683682799339294434e-01 -2.225075811147689819e-01 4.547452032566070557e-01
-2.391125261783599854e-01 -2.406222522258758545e-01 4.232060909271240234e-01
-8.304822444915771484e-02 5.967576801776885986e-02 -1.576451808214187622e-01
-8.621928095817565918e-02 -4.201112389564514160e-01 -1.169711947441101074e-01
-4.158153235912322998e-01 1.681374502368271351e-03 -1.046027913689613342e-01
-1.682036668062210083e-01 -2.085400521755218506e-01 4.558305740356445312e-01
-2.321735322475433350e-01 -2.174834460020065308e-01 4.160178601741790771e-01
-8.538391441106796265e-02 8.191176503896713257e-02 -1.678641587495803833e-01
-4.089438021183013916e-01 -7.186207175254821777e-02 -1.641795933246612549e-01
-4.792898297309875488e-01 -1.571403592824935913e-01 -1.063042581081390381e-01
-3.916989564895629883e-01 -3.827506601810455322e-01 -8.525148779153823853e-02
1.021900996565818787e-01 -2.700962722301483154e-01 -1.250341534614562988e-01
5.709388479590415955e-02 -6.507375743240118027e-03 -1.308806985616683960e-01
-2.218398600816726685e-01 -2.230462580919265747e-01 4.164593517780303955e-01
-2.490294277667999268e-01 -2.165749371051788330e-01 4.301734268665313721e-01
-2.143231779336929321e-02 -4.044927060604095459e-01 -8.642660826444625854e-02
-2.623778581619262695e-01 -2.469259202480316162e-01 4.412000775337219238e-01
-2.291832417249679565e-01 -2.481726557016372681e-01 4.330054819583892822e-01
4.317653179168701172e-02 -1.969906501471996307e-02 -1.236195340752601624e-01
-1.702234745025634766e-01 -2.017004340887069702e-01 4.675208926200866699e-01
-2.252803742885589600e-01 -2.266822904348373413e-01 4.409013688564300537e-01
7.162580639123916626e-02 -2.651449441909790039e-01 -1.150105372071266174e-01
-3.246051967144012451e-01 5.824124068021774292e-02 -1.364713907241821289e-01
-3.294041845947504044e-03 -3.858982622623443604e-01 -8.795677125453948975e-02
-1.579413414001464844e-01 -2.077088057994842529e-01 4.564532935619354248e-01
-1.581630110740661621e-01 -2.050253152847290039e-01 4.559664130210876465e-01
-1.624387055635452271e-01 -2.280942499637603760e-01 4.726771712303161621e-01
9.692389518022537231e-02 -2.693988084793090820e-01 -1.234239935874938965e-01
8.606996387243270874e-02 -2.805198729038238525e-01 -1.169129014015197754e-01
-3.027874231338500977e-01 6.981227546930313110e-02 -1.323754340410232544e-01
-3.494662940502166748e-01 7.691510021686553955e-02 -1.464564204216003418e-01
9.651679545640945435e-02 -1.744991540908813477e-01 -9.696903824806213379e-02
-4.076983928680419922e-01 -6.632349640130996704e-02 -1.659488976001739502e-01
-2.594347894191741943e-01 -2.549417614936828613e-01 4.383785724639892578e-01
-1.813293546438217163e-01 -2.131503671407699585e-01 4.745545983314514160e-01
-1.040368676185607910e-01 -4.407958090305328369e-01 -1.211693361401557922e-01
-2.707231938838958740e-01 -4.577212333679199219e-01 -9.253718703985214233e-02
-2.191553860902786255e-01 -2.458491772413253784e-01 4.218130111694335938e-01
-2.524513602256774902e-01 -2.416452020406723022e-01 4.341765344142913818e-01
-1.234080456197261810e-02 -4.161933064460754395e-01 -8.951774984598159790e-02
-1.564520746469497681e-01 -2.031198889017105103e-01 4.814996719360351562e-01
-2.159947156906127930e-01 -2.435782104730606079e-01 4.269270002841949463e-01
-2.352858781814575195e-01 -2.169187217950820923e-01 4.189353585243225098e-01
-3.162263333797454834e-01 7.126361876726150513e-02 -1.377903074026107788e-01
-3.425257503986358643e-01 5.484566092491149902e-02 -1.365658044815063477e-01
-2.539292275905609131e-01 -2.223005741834640503e-01 4.372431933879852295e-01
-1.708114296197891235e-01 -2.040223032236099243e-01 4.691262543201446533e-01
3.300463408231735229e-02 -1.505350344814360142e-03 -1.249603927135467529e-01
-4.527125060558319092e-01 -2.740135490894317627e-01 -1.176638007164001465e-01
-2.319953441619873047e-01 -2.220291495323181152e-01 4.293670654296875000e-01
-2.482161521911621094e-01 -2.357205003499984741e-01 4.303279221057891846e-01
7.569736987352371216e-02 -2.513450682163238525e-01 -1.163206249475479126e-01
3.283567354083061218e-02 8.902027620933949947e-04 -1.250517666339874268e-01
-1.022285446524620056e-01 -4.242310523986816406e-01 -1.184859797358512878e-01
-1.963117392733693123e-03 -3.793781697750091553e-01 -8.638771623373031616e-02
-3.502185344696044922e-01 4.917610809206962585e-02 -1.332118958234786987e-01
-2.301744818687438965e-01 -2.487074434757232666e-01 4.326656460762023926e-01
-1.252327580004930496e-02 -4.118244349956512451e-01 -8.964125812053680420e-02
-1.588442623615264893e-01 -2.017735987901687622e-01 4.771961867809295654e-01
-1.782227307558059692e-01 -2.200173139572143555e-01 4.672915935516357422e-01
-1.449360251426696777e-01 -1.972642689943313599e-01 4.759008288383483887e-01
-1.609949171543121338e-01 -1.981166154146194458e-01 4.877131581306457520e-01
-2.222869843244552612e-01 -2.173984497785568237e-01 4.191720187664031982e-01
-9.754470735788345337e-02 6.683084368705749512e-02 -1.598891317844390869e-01
-4.680404961109161377e-01 -2.902725636959075928e-01 -1.240364834666252136e-01
-4.840888977050781250e-01 -1.264800131320953369e-01 -1.137143746018409729e-01
-7.805037498474121094e-02 7.424908131361007690e-02 -1.636779010295867920e-01
-9.647523611783981323e-02 -4.259892404079437256e-01 -1.193289831280708313e-01
-1.581829190254211426e-01 -2.070111930370330811e-01 4.560607671737670898e-01
-1.771568953990936279e-01 -2.148724794387817383e-01 4.591228365898132324e-01
-2.433896213769912720e-01 -2.289516776800155640e-01 4.252647459506988525e-01
-8.192919939756393433e-02 4.734520241618156433e-02 -1.516165882349014282e-01
-4.711440205574035645e-01 -3.047747015953063965e-01 -1.264863461256027222e-01
4.322842229157686234e-03 -3.833303451538085938e-01 -8.754646778106689453e-02
-2.456769794225692749e-01 -2.243801951408386230e-01 4.344888627529144287e-01
1.355744246393442154e-02 -3.931900560855865479e-01 -9.021726995706558228e-02
-2.501504421234130859e-01 -2.279258221387863159e-01 4.608272314071655273e-01
-1.891012936830520630e-01 1.122565343976020813e-01 -1.230896860361099243e-01
-2.514065802097320557e-01 -1.953980773687362671e-01 4.746302962303161621e-01
-2.444637566804885864e-01 -2.150593698024749756e-01 4.230858981609344482e-01
-2.739415764808654785e-01 -4.519454836845397949e-01 -9.073018282651901245e-02
3.105624206364154816e-02 -2.393084950745105743e-02 -1.198316887021064758e-01
-1.434559077024459839e-01 -2.088827937841415405e-01 4.920850694179534912e-01
-2.137148678302764893e-01 -2.411850243806838989e-01 4.369917511940002441e-01
-2.245194315910339355e-01 -2.422714531421661377e-01 4.662838876247406006e-01
-1.687492132186889648e-01 -2.227894365787506104e-01 4.721734523773193359e-01
-2.368960231542587280e-01 -2.292084991931915283e-01 4.390294849872589111e-01
-2.365930676460266113e-01 -2.351802289485931396e-01 4.305808544158935547e-01
6.392419338226318359e-02 -2.855706214904785156e-01 -1.070428714156150818e-01
-1.761527508497238159e-01 -2.245918810367584229e-01 4.666005969047546387e-01
-2.284608036279678345e-01 -1.964494735002517700e-01 4.904615581035614014e-01
5.742931365966796875e-02 -7.780364714562892914e-03 -1.304096579551696777e-01
-1.417305171489715576e-01 -2.012877762317657471e-01 4.741274416446685791e-01
-1.411071121692657471e-01 -2.273513078689575195e-01 4.774891138076782227e-01
-2.706105709075927734e-01 -4.512448012828826904e-01 -9.100066870450973511e-02
6.754591595381498337e-03 -3.847074210643768311e-01 -8.792578428983688354e-02
-4.956275224685668945e-01 -1.365560442209243774e-01 -1.171304956078529358e-01
-2.412716597318649292e-01 -4.627868831157684326e-01 -9.068334102630615234e-02
8.733897656202316284e-02 -2.427678108215332031e-01 -1.176939681172370911e-01
-1.940659284591674805e-01 1.025535315275192261e-01 -1.188281923532485962e-01
-8.824677765369415283e-02 7.320445775985717773e-02 -1.640332490205764771e-01
-1.116249784827232361e-01 -4.311607182025909424e-01 -1.177512258291244507e-01
-3.103179633617401123e-01 7.115917652845382690e-02 -1.355784386396408081e-01
-1.782571673393249512e-01 -2.082310318946838379e-01 4.576497673988342285e-01
-2.155117839574813843e-01 -2.361913174390792847e-01 4.209756851196289062e-01
-1.564918272197246552e-02 -4.166910052299499512e-01 -8.813387155532836914e-02
-2.440436631441116333e-01 -2.231611162424087524e-01 4.309037923812866211e-01
-2.317231148481369019e-01 -2.168365716934204102e-01 4.164434373378753662e-01
-1.642042398452758789e-01 -2.305341064929962158e-01 4.766812622547149658e-01
-1.768727749586105347e-01 -2.257648855447769165e-01 4.706383943557739258e-01
4.702135920524597168e-02 -3.964240476489067078e-02 -1.148514300584793091e-01
-2.274534553289413452e-01 -2.205581814050674438e-01 4.271996319293975830e-01
-9.413149952888488770e-02 -4.204649627208709717e-01 -1.178509593009948730e-01
-1.505282521247863770e-01 -2.040563672780990601e-01 4.706668853759765625e-01
-4.457885026931762695e-01 -2.825804352760314941e-01 -1.176698803901672363e-01
-1.530672311782836914e-01 -2.196085005998611450e-01 4.646479785442352295e-01
-1.690082103013992310e-01 -2.151959091424942017e-01 4.902236759662628174e-01
4.520241543650627136e-02 -3.776736930012702942e-02 -1.157998740673065186e-01
-1.798791885375976562e-01 1.079755201935768127e-01 -1.226464807987213135e-01
-2.330883592367172241e-01 -2.330964505672454834e-01 4.294171929359436035e-01
9.214124083518981934e-02 -2.758203446865081787e-01 -1.205147057771682739e-01
-3.209540545940399170e-01 7.096391916275024414e-02 -1.393161565065383911e-01
-2.403991520404815674e-01 -2.145093381404876709e-01 4.173949658870697021e-01
-1.058587953448295593e-01 -4.351758062839508057e-01 -1.200109049677848816e-01
-1.631037890911102295e-01 -2.019195109605789185e-01 4.791617393493652344e-01
-9.641154110431671143e-02 6.914832442998886108e-02 -1.610406488180160522e-01
-1.632556915283203125e-01 -2.058702260255813599e-01 4.460379183292388916e-01
-2.417595237493515015e-01 -2.215937525033950806e-01 4.289178550243377686e-01
-1.627735942602157593e-01 -2.133935391902923584e-01 4.559219479560852051e-01
-1.672317981719970703e-01 -2.232644855976104736e-01 4.551867246627807617e-01
-3.146093785762786865e-01 5.946598201990127563e-02 -1.345364898443222046e-01
-3.315747380256652832e-01 5.808028206229209900e-02 -1.374584883451461792e-01
-4.356674253940582275e-01 -3.109008073806762695e-01 -1.118058636784553528e-01
-2.297408580780029297e-01 -1.970880180597305298e-01 4.833883941173553467e-01
-2.193022668361663818e-01 -2.436223924160003662e-01 4.193521142005920410e-01
9.952111542224884033e-02 -2.604289352893829346e-01 -1.238446608185768127e-01
-1.060712039470672607e-01 5.411712452769279480e-02 -1.533661782741546631e-01
-3.176608681678771973e-01 7.015967369079589844e-02 -1.380394399166107178e-01
-9.320737421512603760e-02 6.207096949219703674e-02 -1.585906594991683960e-01
-9.918098151683807373e-02 6.705298274755477905e-02 -1.596121937036514282e-01
4.706293344497680664e-02 3.174441633746027946e-03 -1.301263421773910522e-01
-3.977365791797637939e-01 -6.469047069549560547e-02 -1.629605144262313843e-01
-4.621854126453399658e-01 -2.812855243682861328e-01 -1.210115998983383179e-01
-1.032106503844261169e-01 6.093521788716316223e-02 -1.563905626535415649e-01
-1.513651013374328613e-01 -2.230879366397857666e-01 4.577905535697937012e-01
-1.709623336791992188e-01 1.130727380514144897e-01 -1.228025853633880615e-01
-2.544292211532592773e-01 -2.264572530984878540e-01 4.264591336250305176e-01
-4.744925200939178467e-01 -1.385674178600311279e-01 -1.101909279823303223e-01
-4.740943312644958496e-01 -1.411121934652328491e-01 -1.096781641244888306e-01
-3.487579226493835449e-01 4.698996245861053467e-02 -1.323685795068740845e-01
-1.605404466390609741e-01 -2.015499174594879150e-01 4.772349596023559570e-01
-2.414796948432922363e-01 -2.245582491159439087e-01 4.235483705997467041e-01
-1.694786697626113892e-01 -2.115628719329833984e-01 4.828318655490875244e-01
-1.703846752643585205e-01 9.734861552715301514e-02 -1.176233291625976562e-01
-1.462187767028808594e-01 -2.149690091609954834e-01 4.712494015693664551e-01
-2.182948440313339233e-01 -2.175445407629013062e-01 4.379248917102813721e-01
-4.498445391654968262e-01 -2.898308038711547852e-01 -1.193666607141494751e-01
-1.794798821210861206e-01 1.022684946656227112e-01 -1.204569786787033081e-01
-1.557740420103073120e-01 -2.143856137990951538e-01 4.516764879226684570e-01
-7.671625353395938873e-03 -4.000738263130187988e-01 -9.016290307044982910e-02
-2.447795867919921875e-01 -2.144144922494888306e-01 4.251930415630340576e-01
-1.710682511329650879e-01 -2.087206840515136719e-01 4.739067852497100830e-01
-2.392880022525787354e-01 -2.140522450208663940e-01 4.164822995662689209e-01
