-1.911261230707168579e-01 -2.639392912387847900e-01 3.494883477687835693e-01
-1.823254227638244629e-01 -2.620387077331542969e-01 3.580188453197479248e-01
-1.801443845033645630e-01 -2.621251344680786133e-01 3.589050471782684326e-01
-1.547203958034515381e-01 -9.416151046752929688e-02 3.074189126491546631e-01
-1.583424061536788940e-01 -8.403675258159637451e-02 3.084072172641754150e-01
-1.612404286861419678e-01 -2.727164626121520996e-01 3.320411443710327148e-01
-1.668033003807067871e-01 -1.482902020215988159e-01 3.170363605022430420e-01
-1.820527315139770508e-01 -2.674672007560729980e-01 3.379628956317901611e-01
-1.833271384239196777e-01 -2.706651389598846436e-01 3.465008735656738281e-01
-2.000202238559722900e-01 -2.546447217464447021e-01 3.181838989257812500e-01
-1.787345409393310547e-01 -2.590849101543426514e-01 3.291074633598327637e-01
-1.819827109575271606e-01 -2.773112356662750244e-01 3.856681883335113525e-01
-1.863131076097488403e-01 -2.799158096313476562e-01 3.178100883960723877e-01
-1.790101975202560425e-01 -2.666642963886260986e-01 3.496095836162567139e-01
-1.338146924972534180e-01 -9.658791869878768921e-02 3.232168555259704590e-01
-1.470647305250167847e-01 -8.320107311010360718e-02 3.331060111522674561e-01
-1.786868274211883545e-01 -2.840910553932189941e-01 3.415745198726654053e-01
-1.656612455844879150e-01 -2.774612605571746826e-01 3.275780975818634033e-01
-1.893551498651504517e-01 -2.826343476772308350e-01 3.554100394248962402e-01
-1.514658033847808838e-01 -8.829952031373977661e-02 3.196458220481872559e-01
-1.761889010667800903e-01 -2.969196140766143799e-01 3.297773599624633789e-01
-1.690158694982528687e-01 -2.802510559558868408e-01 3.495726287364959717e-01
-1.925591826438903809e-01 -2.634181678295135498e-01 3.376162648200988770e-01
-1.532487720251083374e-01 -9.029860049486160278e-02 3.177201449871063232e-01
-1.830197721719741821e-01 -2.828137576580047607e-01 3.507754206657409668e-01
-1.611054837703704834e-01 -2.590329349040985107e-01 3.372473418712615967e-01
-1.767686903476715088e-01 -2.782663702964782715e-01 3.211686313152313232e-01
-1.831532269716262817e-01 -2.833518683910369873e-01 3.360925912857055664e-01
-1.803217679262161255e-01 -2.681398987770080566e-01 3.600491881370544434e-01
-1.800429672002792358e-01 -2.876441180706024170e-01 3.484100997447967529e-01
-1.654539704322814941e-01 -2.660500407218933105e-01 3.300303816795349121e-01
-1.720738261938095093e-01 -2.781656682491302490e-01 3.469037413597106934e-01
-1.845034658908843994e-01 -2.552190721035003662e-01 3.168548643589019775e-01
-1.906536519527435303e-01 -2.739637196063995361e-01 3.505393266677856445e-01
-1.924857050180435181e-01 -2.669526338577270508e-01 3.119705617427825928e-01
-1.999727785587310791e-01 -2.640379667282104492e-01 3.117544949054718018e-01
-1.697684675455093384e-01 -2.626377344131469727e-01 3.427057266235351562e-01
-1.742220669984817505e-01 -2.763550877571105957e-01 3.278432488441467285e-01
-1.832262873649597168e-01 -2.732603549957275391e-01 3.532873988151550293e-01
-1.998149454593658447e-01 -2.903918325901031494e-01 3.237004876136779785e-01
-1.851423382759094238e-01 -2.751784622669219971e-01 3.534919321537017822e-01
-1.620236635208129883e-01 -2.585881948471069336e-01 3.358938097953796387e-01
-1.574414521455764771e-01 -8.077087998390197754e-02 3.127272725105285645e-01
-1.289405822753906250e-01 -9.741143137216567993e-02 3.204576969146728516e-01
-1.904914230108261108e-01 -2.861751914024353027e-01 3.449053168296813965e-01
-1.888502389192581177e-01 -2.943246662616729736e-01 3.268906474113464355e-01
-2.001085877418518066e-01 -2.544372975826263428e-01 3.200384378433227539e-01
-1.776541024446487427e-01 -2.678125202655792236e-01 3.505342900753021240e-01
-1.981671154499053955e-01 -2.707570493221282959e-01 3.452921807765960693e-01
-1.655787378549575806e-01 -2.745610475540161133e-01 3.253189027309417725e-01
-1.837614029645919800e-01 -2.870631515979766846e-01 3.097674250602722168e-01
-1.847749501466751099e-01 -2.520709931850433350e-01 3.154151141643524170e-01
-1.787229478359222412e-01 -2.917699217796325684e-01 3.592350780963897705e-01
-1.778827160596847534e-01 -2.631551623344421387e-01 3.626371026039123535e-01
-1.863559782505035400e-01 -2.748365402221679688e-01 3.237300813198089600e-01
-1.806196868419647217e-01 -2.932191789150238037e-01 3.609299063682556152e-01
-1.998031437397003174e-01 -2.801191210746765137e-01 3.398984074592590332e-01
-2.012064754962921143e-01 -2.656083405017852783e-01 3.145038187503814697e-01
-1.924282908439636230e-01 -2.635088562965393066e-01 3.372668623924255371e-01
-1.806730628013610840e-01 -2.688546776771545410e-01 3.506999611854553223e-01
-1.320399492979049683e-01 -9.078703820705413818e-02 3.331127762794494629e-01
-1.492913365364074707e-01 -8.478376269340515137e-02 3.300268948078155518e-01
-1.517042666673660278e-01 -8.877522498369216919e-02 3.314380645751953125e-01
-1.731700599193572998e-01 -2.857978343963623047e-01 3.558179438114166260e-01
-1.942827403545379639e-01 -3.001585304737091064e-01 3.208034336566925049e-01
-1.813552081584930420e-01 -2.824571430683135986e-01 3.507493138313293457e-01
-1.894911974668502808e-01 -2.722587585449218750e-01 3.605854809284210205e-01
-1.839349120855331421e-01 -2.942622900009155273e-01 3.215404152870178223e-01
-1.817867308855056763e-01 -2.612045407295227051e-01 3.065077066421508789e-01
-1.932401955127716064e-01 -2.402115911245346069e-01 3.202086985111236572e-01
-1.674574017524719238e-01 -2.682801187038421631e-01 3.389010429382324219e-01
-1.807538121938705444e-01 -2.905361652374267578e-01 3.714591264724731445e-01
-1.870922297239303589e-01 -2.864249050617218018e-01 3.525895178318023682e-01
-1.677809059619903564e-01 -2.829339504241943359e-01 3.565337955951690674e-01
-1.729907840490341187e-01 -1.773761957883834839e-01 3.176349699497222900e-01
-1.798090934753417969e-01 -2.850478589534759521e-01 3.728575408458709717e-01
-1.944000571966171265e-01 -2.497423291206359863e-01 3.112702071666717529e-01
-1.825132220983505249e-01 -2.798154950141906738e-01 3.348010778427124023e-01
-1.764280200004577637e-01 -2.822508215904235840e-01 3.302038311958312988e-01
-1.428406834602355957e-01 -7.008349895477294922e-02 3.145956099033355713e-01
-1.536308825016021729e-01 -8.546067029237747192e-02 3.087445795536041260e-01
-1.666533499956130981e-01 -8.600980788469314575e-02 3.121344745159149170e-01
-1.895528882741928101e-01 -2.831207811832427979e-01 3.182322382926940918e-01
-1.712399721145629883e-01 -2.814435362815856934e-01 3.532843589782714844e-01
-1.873923242092132568e-01 -2.611201405525207520e-01 3.130102455615997314e-01
-1.797382831573486328e-01 -2.661088705062866211e-01 3.662504851818084717e-01
-1.938772946596145630e-01 -2.779512405395507812e-01 3.236505985260009766e-01
-1.804255843162536621e-01 -2.924769520759582520e-01 3.177610039710998535e-01
-1.417610347270965576e-01 -9.048841893672943115e-02 3.352457284927368164e-01
-1.941202729940414429e-01 -2.813107967376708984e-01 3.650656938552856445e-01
-1.908401846885681152e-01 -2.814728915691375732e-01 3.178907632827758789e-01
-1.726027429103851318e-01 -2.896125614643096924e-01 3.650786876678466797e-01
-1.413815319538116455e-01 -1.027609482407569885e-01 3.184322416782379150e-01
-1.850315630435943604e-01 -2.679321467876434326e-01 3.344191610813140869e-01
-1.861561089754104614e-01 -2.798707485198974609e-01 3.084563612937927246e-01
-1.799097955226898193e-01 -2.639683783054351807e-01 3.396928012371063232e-01
-1.843554079532623291e-01 -3.038727641105651855e-01 3.224026560783386230e-01
-1.852784454822540283e-01 -2.930335700511932373e-01 3.674794137477874756e-01
-1.666356325149536133e-01 -2.768892645835876465e-01 3.537150919437408447e-01
-1.753584146499633789e-01 -2.761526107788085938e-01 3.667670488357543945e-01
-1.775823831558227539e-01 -2.753502428531646729e-01 3.810317218303680420e-01
-1.889721304178237915e-01 -2.854429185390472412e-01 3.375631272792816162e-01
-1.975501477718353271e-01 -2.704302668571472168e-01 3.202568590641021729e-01
-1.762166768312454224e-01 -2.878095507621765137e-01 3.922130763530731201e-01
-1.888801902532577515e-01 -2.862013280391693115e-01 3.251957595348358154e-01
-1.467690914869308472e-01 -9.326192736625671387e-02 3.271667063236236572e-01
-1.802212744951248169e-01 -2.952528893947601318e-01 3.472375869750976562e-01
-1.824025809764862061e-01 -2.856686413288116455e-01 3.889637589454650879e-01
-1.660145521163940430e-01 -2.691830396652221680e-01 3.526913523674011230e-01
-1.775993108749389648e-01 -2.672259807586669922e-01 3.586717247962951660e-01
-1.444405764341354370e-01 -8.454036712646484375e-02 3.188351392745971680e-01
-1.957700699567794800e-01 -2.519487738609313965e-01 3.160129785537719727e-01
-1.944254636764526367e-01 -2.702594101428985596e-01 3.215095996856689453e-01
-1.912533640861511230e-01 -2.674000859260559082e-01 3.133087456226348877e-01
-1.733821332454681396e-01 -2.706233859062194824e-01 3.054851889610290527e-01
-1.889028251171112061e-01 -2.660554051399230957e-01 3.515842556953430176e-01
-1.949114352464675903e-01 -2.680391371250152588e-01 3.135010898113250732e-01
-1.828714311122894287e-01 -2.552945315837860107e-01 3.068998754024505615e-01
-1.850603222846984863e-01 -2.784461379051208496e-01 3.685371577739715576e-01
-1.745043247938156128e-01 -2.839594185352325439e-01 3.647698462009429932e-01
-1.940527409315109253e-01 -2.729204595088958740e-01 3.513781428337097168e-01
-1.919425278902053833e-01 -2.480273395776748657e-01 3.213860094547271729e-01
-1.993431746959686279e-01 -2.745143175125122070e-01 3.429967761039733887e-01
-1.729115396738052368e-01 -2.780499160289764404e-01 3.334063887596130371e-01
-1.804302632808685303e-01 -2.514129877090454102e-01 3.145524263381958008e-01
-1.286980658769607544e-01 -9.558653831481933594e-02 3.364444077014923096e-01
-1.735831648111343384e-01 -2.916874885559082031e-01 3.173884153366088867e-01
-1.860980838537216187e-01 -2.795595824718475342e-01 3.077789247035980225e-01
-1.895105242729187012e-01 -2.689221501350402832e-01 3.287604451179504395e-01
-1.798886954784393311e-01 -2.863743901252746582e-01 3.548963963985443115e-01
-1.642192304134368896e-01 -8.890086412429809570e-02 3.152441680431365967e-01
-1.790523380041122437e-01 -2.825097441673278809e-01 3.373444080352783203e-01
-1.460895091295242310e-01 -1.079183816909790039e-01 3.042206764221191406e-01
-1.790345311164855957e-01 -2.905595004558563232e-01 3.237176239490509033e-01
-1.544145494699478149e-01 -2.756949663162231445e-01 3.311665952205657959e-01
-1.931709349155426025e-01 -2.971642315387725830e-01 3.149828314781188965e-01
-1.925984174013137817e-01 -2.478502839803695679e-01 3.211762905120849609e-01
-1.876797974109649658e-01 -2.494549751281738281e-01 3.172789812088012695e-01
-1.686321347951889038e-01 -2.790485322475433350e-01 3.673427999019622803e-01
-1.679604947566986084e-01 -2.827006876468658447e-01 3.610074520111083984e-01
-1.466194987297058105e-01 -1.071058511734008789e-01 3.208148777484893799e-01
8.100543916225433350e-02 -2.626785635948181152e-01 -1.183133870363235474e-01
-1.731264442205429077e-01 -2.841705679893493652e-01 3.852035105228424072e-01
-1.732203215360641479e-01 -2.899938523769378662e-01 3.644437789916992188e-01
-1.799142211675643921e-01 -2.875551283359527588e-01 3.350611031055450439e-01
-1.567982584238052368e-01 -1.064957454800605774e-01 3.206393420696258545e-01
-1.450473666191101074e-01 -6.903146952390670776e-02 3.006713688373565674e-01
-1.637732535600662231e-01 -8.775909245014190674e-02 3.183396458625793457e-01
-1.733132153749465942e-01 -2.799667716026306152e-01 3.375285863876342773e-01
-1.836128085851669312e-01 -2.740658819675445557e-01 3.015970885753631592e-01
-1.731513738632202148e-01 -2.750555574893951416e-01 3.498211503028869629e-01
-1.702167242765426636e-01 -2.700912952423095703e-01 3.515673279762268066e-01
-1.721325367689132690e-01 -2.785228192806243896e-01 3.455723524093627930e-01
-1.708517074584960938e-01 -2.727586030960083008e-01 3.593419790267944336e-01
-1.675245910882949829e-01 -1.480025053024291992e-01 3.166043460369110107e-01
-1.789376735687255859e-01 -2.982619404792785645e-01 3.128555119037628174e-01
-1.837724149227142334e-01 -2.835167050361633301e-01 3.366914391517639160e-01
-1.742850989103317261e-01 -2.813841104507446289e-01 3.570733070373535156e-01
-1.937419325113296509e-01 -2.823116481304168701e-01 3.649257123470306396e-01
-1.817372292280197144e-01 -2.687307000160217285e-01 3.572121858596801758e-01
-1.737620681524276733e-01 -2.814415991306304932e-01 3.635582625865936279e-01
-1.857263594865798950e-01 -2.748188078403472900e-01 3.204044103622436523e-01
-1.396936327219009399e-01 -7.457552850246429443e-02 3.103535175323486328e-01
-1.789444386959075928e-01 -2.768307328224182129e-01 3.681062757968902588e-01
-1.732236444950103760e-01 -2.743663191795349121e-01 3.500507473945617676e-01
-1.654621660709381104e-01 -2.762379348278045654e-01 3.420768678188323975e-01
-1.385064572095870972e-01 -9.913567453622817993e-02 3.321911394596099854e-01
-1.519909501075744629e-01 -8.810081332921981812e-02 3.303315043449401855e-01
-1.791004538536071777e-01 -2.844827175140380859e-01 3.400500714778900146e-01
-1.963355988264083862e-01 -2.587976753711700439e-01 3.202032744884490967e-01
-1.472982019186019897e-01 -1.103351786732673645e-01 3.220748603343963623e-01
-1.707039475440979004e-01 -2.768545150756835938e-01 3.351934254169464111e-01
-1.997570246458053589e-01 -2.893854081630706787e-01 3.220308125019073486e-01
-1.431766897439956665e-01 -8.845061808824539185e-02 3.115831613540649414e-01
-1.842790693044662476e-01 -2.750043272972106934e-01 3.197324275970458984e-01
-1.430311352014541626e-01 -1.018082797527313232e-01 3.219607174396514893e-01
-1.947999149560928345e-01 -2.598189413547515869e-01 3.230455219745635986e-01
-1.867729723453521729e-01 -2.690773010253906250e-01 3.179596364498138428e-01
-1.844427436590194702e-01 -2.840259969234466553e-01 3.633956313133239746e-01
-1.725364923477172852e-01 -2.797612845897674561e-01 3.399975299835205078e-01
-1.473000943660736084e-01 -1.130344048142433167e-01 3.262177109718322754e-01
-1.893653571605682373e-01 -2.705909013748168945e-01 3.326532542705535889e-01
-1.956952065229415894e-01 -2.941063940525054932e-01 3.301708400249481201e-01
-1.273571103811264038e-01 -8.664488047361373901e-02 3.310699164867401123e-01
-1.803410649299621582e-01 -2.876653969287872314e-01 3.210612535476684570e-01
-2.071104496717453003e-01 -2.605277001857757568e-01 3.275885879993438721e-01
-1.824875921010971069e-01 -2.639993131160736084e-01 3.155097365379333496e-01
-1.837593764066696167e-01 -2.685615420341491699e-01 3.384102284908294678e-01
-1.906608790159225464e-01 -2.761990725994110107e-01 3.345096409320831299e-01
-1.961470544338226318e-01 -2.808646857738494873e-01 3.225446045398712158e-01
-1.837987750768661499e-01 -2.769826054573059082e-01 3.222329616546630859e-01
-1.849715858697891235e-01 -2.692472636699676514e-01 3.421022295951843262e-01
-1.758797615766525269e-01 -2.635874748229980469e-01 3.110126256942749023e-01
-1.705361157655715942e-01 -2.769178748130798340e-01 3.358582258224487305e-01
-1.866618543863296509e-01 -2.820463180541992188e-01 3.350628614425659180e-01
-1.809511929750442505e-01 -2.505578398704528809e-01 3.305021524429321289e-01
-1.952852755784988403e-01 -2.693021595478057861e-01 3.347122669219970703e-01
-1.820345222949981689e-01 -2.799590528011322021e-01 3.331273496150970459e-01
-1.507178694009780884e-01 -7.971550524234771729e-02 3.124658763408660889e-01
-1.783956140279769897e-01 -2.946315705776214600e-01 3.501598834991455078e-01
-1.827666908502578735e-01 -2.698527276515960693e-01 3.456236422061920166e-01
-1.671289056539535522e-01 -2.720806002616882324e-01 3.642441928386688232e-01
-1.901649534702301025e-01 -2.628176808357238770e-01 3.149297833442687988e-01
8.733897656202316284e-02 -2.427678108215332031e-01 -1.176939681172370911e-01
-1.834236085414886475e-01 -2.867146134376525879e-01 3.617727458477020264e-01
-1.568258106708526611e-01 -9.262904524803161621e-02 3.282272517681121826e-01
-1.809502840042114258e-01 -2.648538053035736084e-01 3.221715092658996582e-01
-1.512039601802825928e-01 -9.213466197252273560e-02 3.262954056262969971e-01
-1.831870079040527344e-01 -2.834194600582122803e-01 3.502261340618133545e-01
-1.274228543043136597e-01 -8.886864036321640015e-02 3.241204619407653809e-01
-1.660615056753158569e-01 -8.711003512144088745e-02 3.122218549251556396e-01
-1.872765868902206421e-01 -2.683072984218597412e-01 3.054833710193634033e-01
-1.971786916255950928e-01 -2.804560065269470215e-01 3.474364876747131348e-01
-1.427628993988037109e-01 -1.021665781736373901e-01 3.220752477645874023e-01
-1.793957650661468506e-01 -2.760500907897949219e-01 3.669428527355194092e-01
9.792947024106979370e-02 -2.647196054458618164e-01 -1.238655596971511841e-01
-1.796596646308898926e-01 -2.746621668338775635e-01 3.741552531719207764e-01
9.437929838895797729e-02 -2.709272205829620361e-01 -1.223635077476501465e-01
-1.530632972717285156e-01 -9.134362637996673584e-02 3.289191126823425293e-01
9.239951521158218384e-02 -2.620880007743835449e-01 -1.220584735274314880e-01
-1.516636013984680176e-01 -8.992492407560348511e-02 3.312571644783020020e-01
-1.771804839372634888e-01 -2.837756872177124023e-01 3.578241467475891113e-01
-1.397877037525177002e-01 -9.202317148447036743e-02 3.183975219726562500e-01
-1.809009760618209839e-01 -2.707405686378479004e-01 3.571464121341705322e-01
-1.926922947168350220e-01 -2.775309383869171143e-01 3.401478826999664307e-01
-1.683472245931625366e-01 -2.738687396049499512e-01 3.543692231178283691e-01
-1.748273968696594238e-01 -2.926404178142547607e-01 3.528754413127899170e-01
-1.585118174552917480e-01 -2.814553081989288330e-01 3.319948017597198486e-01
-1.248104497790336609e-01 -9.273954480886459351e-02 3.291836977005004883e-01
-1.848550885915756226e-01 -2.692925035953521729e-01 3.659719526767730713e-01
-1.706853657960891724e-01 -2.768741250038146973e-01 3.351754844188690186e-01
-1.821964532136917114e-01 -2.485358417034149170e-01 3.130286633968353271e-01
-1.364286839962005615e-01 -1.039371639490127563e-01 3.321997523307800293e-01
-1.759110540151596069e-01 -2.702767550945281982e-01 3.514076769351959229e-01
-1.688996106386184692e-01 -2.834852337837219238e-01 3.705712854862213135e-01
-1.737411320209503174e-01 -2.819257378578186035e-01 3.656100630760192871e-01
-1.568174958229064941e-01 -2.663193643093109131e-01 3.349100649356842041e-01
-1.718353778123855591e-01 -2.782812416553497314e-01 3.302312791347503662e-01
-1.621185243129730225e-01 -2.709648311138153076e-01 3.290497660636901855e-01
-1.552350223064422607e-01 -2.715146839618682861e-01 3.372804522514343262e-01
-1.769314408302307129e-01 -2.868674695491790771e-01 3.823651969432830811e-01
-1.595399975776672363e-01 -2.686222195625305176e-01 3.254010677337646484e-01
9.485973417758941650e-02 -2.667716145515441895e-01 -1.229041740298271179e-01
-1.438336521387100220e-01 -1.006211563944816589e-01 3.154077231884002686e-01
-1.738621890544891357e-01 -2.902358472347259521e-01 3.680229485034942627e-01
-1.931078433990478516e-01 -2.526483833789825439e-01 3.274784684181213379e-01
-1.449357569217681885e-01 -9.257526695728302002e-02 3.264989256858825684e-01
-1.790262162685394287e-01 -2.855283021926879883e-01 3.559050559997558594e-01
-1.802996098995208740e-01 -2.811903357505798340e-01 3.153563439846038818e-01
-1.828117817640304565e-01 -2.435683906078338623e-01 3.260311782360076904e-01
-1.726566553115844727e-01 -2.785479724407196045e-01 3.399867415428161621e-01
-1.435695141553878784e-01 -1.009898334741592407e-01 3.250031471252441406e-01
-1.498316377401351929e-01 -8.015696704387664795e-02 3.092136979103088379e-01
-1.811890453100204468e-01 -2.733899950981140137e-01 2.992966771125793457e-01
-1.649127006530761719e-01 -2.588871717453002930e-01 3.360843360424041748e-01
-1.830358207225799561e-01 -2.624503970146179199e-01 3.552035391330718994e-01
-1.487378478050231934e-01 -8.575718849897384644e-02 3.308614492416381836e-01
-1.762547940015792847e-01 -2.695819139480590820e-01 3.540407121181488037e-01
-1.649910360574722290e-01 -7.757222652435302734e-02 3.203974366188049316e-01
-1.728445738554000854e-01 -2.684980034828186035e-01 3.460154831409454346e-01
-1.593963652849197388e-01 -2.619463205337524414e-01 3.370246291160583496e-01
-1.653922200202941895e-01 -2.716068327426910400e-01 3.242368400096893311e-01
-1.907148659229278564e-01 -2.512389421463012695e-01 3.247490227222442627e-01
-1.365645527839660645e-01 -9.023291617631912231e-02 3.156249821186065674e-01
-1.737070977687835693e-01 -2.764821648597717285e-01 3.314702510833740234e-01
-1.422214061021804810e-01 -8.331760764122009277e-02 3.368178009986877441e-01
-1.656154245138168335e-01 -2.695292532444000244e-01 3.199068903923034668e-01
9.692389518022537231e-02 -2.693988084793090820e-01 -1.234239935874938965e-01
-1.958352178335189819e-01 -2.808736264705657959e-01 3.264279961585998535e-01
-1.489806622266769409e-01 -8.301277458667755127e-02 3.099187314510345459e-01
-1.974668502807617188e-01 -2.706954479217529297e-01 3.475860357284545898e-01
-1.868363022804260254e-01 -2.622611224651336670e-01 3.369243443012237549e-01
-1.931949108839035034e-01 -2.769771814346313477e-01 3.418708145618438721e-01
-1.957246959209442139e-01 -2.681415379047393799e-01 3.308219015598297119e-01
-1.570567637681961060e-01 -9.285707771778106689e-02 3.137645423412322998e-01
-1.249782294034957886e-01 -9.325921535491943359e-02 3.275287449359893799e-01
-1.831648796796798706e-01 -2.836458683013916016e-01 3.779356181621551514e-01
-1.868606060743331909e-01 -2.696010470390319824e-01 3.129112720489501953e-01
-1.922755837440490723e-01 -2.604381144046783447e-01 3.101396858692169189e-01
-1.742201000452041626e-01 -2.728349268436431885e-01 3.720560669898986816e-01
-1.875059902667999268e-01 -2.757102549076080322e-01 3.294424414634704590e-01
-1.648046821355819702e-01 -2.750506699085235596e-01 3.266301453113555908e-01
-1.978150755167007446e-01 -2.530262768268585205e-01 3.202135562896728516e-01
-1.675678491592407227e-01 -2.743589878082275391e-01 3.493894040584564209e-01
-1.700245887041091919e-01 -2.817759513854980469e-01 3.429673910140991211e-01
-1.731362342834472656e-01 -2.705135643482208252e-01 3.344967365264892578e-01
9.881025552749633789e-02 -2.568825185298919678e-01 -1.230849251151084900e-01
-1.679546236991882324e-01 -2.803345024585723877e-01 3.612104356288909912e-01
-1.834306865930557251e-01 -2.759580612182617188e-01 3.653551638126373291e-01
-1.767919659614562988e-01 -2.832589745521545410e-01 3.624844253063201904e-01
-1.829040646553039551e-01 -2.814846336841583252e-01 3.462860286235809326e-01
-1.703913956880569458e-01 -2.784791290760040283e-01 3.660261631011962891e-01
-1.551045626401901245e-01 -2.707557976245880127e-01 3.344399929046630859e-01
-1.912240087985992432e-01 -2.626797854900360107e-01 3.149460256099700928e-01
-1.739248037338256836e-01 -2.699425220489501953e-01 3.636895716190338135e-01
-1.449658125638961792e-01 -1.010706201195716858e-01 3.112117648124694824e-01
-1.792092621326446533e-01 -2.582340836524963379e-01 3.159800469875335693e-01
-1.846124231815338135e-01 -2.920641899108886719e-01 3.179081380367279053e-01
-1.880546510219573975e-01 -2.702305316925048828e-01 3.470565974712371826e-01
-1.753109842538833618e-01 -2.966315448284149170e-01 3.287404179573059082e-01
-1.855702549219131470e-01 -2.836980521678924561e-01 3.577868342399597168e-01
-1.962585300207138062e-01 -2.509092390537261963e-01 3.229407668113708496e-01
-1.460130512714385986e-01 -1.066686734557151794e-01 3.180897235870361328e-01
-1.725885123014450073e-01 -2.933462262153625488e-01 3.236002922058105469e-01
8.606996387243270874e-02 -2.805198729038238525e-01 -1.169129014015197754e-01
-1.323009431362152100e-01 -8.925627171993255615e-02 3.318952322006225586e-01
-1.664292663335800171e-01 -7.893015444278717041e-02 3.186213672161102295e-01
-1.743104010820388794e-01 -2.858710885047912598e-01 3.314408659934997559e-01
-1.701565384864807129e-01 -2.647193670272827148e-01 3.337199091911315918e-01
-1.683213859796524048e-01 -2.728227972984313965e-01 3.482224941253662109e-01
-1.783816516399383545e-01 -2.889839112758636475e-01 3.726467490196228027e-01
-1.726975440979003906e-01 -2.760554850101470947e-01 3.401884138584136963e-01
-1.891051083803176880e-01 -2.858760356903076172e-01 3.473188877105712891e-01
-1.897947788238525391e-01 -2.672848999500274658e-01 3.519160151481628418e-01
-1.804774254560470581e-01 -2.641808688640594482e-01 3.288800716400146484e-01
-1.862937957048416138e-01 -2.991208136081695557e-01 3.132916390895843506e-01
-1.719226241111755371e-01 -2.757888436317443848e-01 3.489172756671905518e-01
-1.741438955068588257e-01 -2.895246148109436035e-01 3.322996497154235840e-01
-1.729010492563247681e-01 -2.774247527122497559e-01 3.484386205673217773e-01
-1.885383129119873047e-01 -2.821291089057922363e-01 3.546573221683502197e-01
-1.808995306491851807e-01 -2.817069292068481445e-01 3.375414013862609863e-01
-1.771409064531326294e-01 -2.694072425365447998e-01 3.476081788539886475e-01
-1.963916122913360596e-01 -2.960557639598846436e-01 3.166477680206298828e-01
-1.749279499053955078e-01 -2.619448304176330566e-01 3.298278450965881348e-01
-1.870210617780685425e-01 -2.702795863151550293e-01 3.617680370807647705e-01
-1.926850825548171997e-01 -2.736232578754425049e-01 3.368401527404785156e-01
-1.971514374017715454e-01 -2.572622299194335938e-01 3.200137317180633545e-01
-1.353048831224441528e-01 -9.705181419849395752e-02 3.285802900791168213e-01
-1.899174153804779053e-01 -2.938496768474578857e-01 3.191473484039306641e-01
9.952111542224884033e-02 -2.604289352893829346e-01 -1.238446608185768127e-01
-1.865830868482589722e-01 -2.851048707962036133e-01 3.357307612895965576e-01
-1.884445101022720337e-01 -2.837962806224822998e-01 3.499606549739837646e-01
-1.808975189924240112e-01 -2.825379669666290283e-01 3.540360331535339355e-01
-1.874148100614547729e-01 -2.518638968467712402e-01 3.129489123821258545e-01
-1.863133460283279419e-01 -2.925191819667816162e-01 3.298129439353942871e-01
-1.936684548854827881e-01 -2.398103773593902588e-01 3.271757662296295166e-01
8.622159808874130249e-02 -2.582078576087951660e-01 -1.199138015508651733e-01
-1.563781946897506714e-01 -1.143358126282691956e-01 3.145462870597839355e-01
-1.456071585416793823e-01 -8.992912620306015015e-02 3.117976486682891846e-01
-1.891097873449325562e-01 -2.827391922473907471e-01 3.585940897464752197e-01
-1.779297441244125366e-01 -2.899776995182037354e-01 3.102416396141052246e-01
-1.889585554599761963e-01 -2.447525411844253540e-01 3.108636438846588135e-01
-1.679889112710952759e-01 -2.836652100086212158e-01 3.559434711933135986e-01
-1.450555026531219482e-01 -9.266486763954162598e-02 3.262444436550140381e-01
-1.568972915410995483e-01 -8.773965388536453247e-02 3.087234497070312500e-01
-1.585890054702758789e-01 -1.160014569759368896e-01 3.207774162292480469e-01
-1.424685865640640259e-01 -9.478098154067993164e-02 3.354850113391876221e-01
-1.395269036293029785e-01 -9.975200146436691284e-02 3.311619758605957031e-01
-1.729210913181304932e-01 -2.741174697875976562e-01 3.464738726615905762e-01
-1.864081323146820068e-01 -2.674130797386169434e-01 3.345825672149658203e-01
-1.667498648166656494e-01 -2.763259708881378174e-01 3.418664038181304932e-01
-1.951866149902343750e-01 -2.795496284961700439e-01 3.248685002326965332e-01
-1.866722404956817627e-01 -2.688111662864685059e-01 3.223067820072174072e-01
-1.913532018661499023e-01 -2.723327279090881348e-01 3.405329585075378418e-01
-1.746250987052917480e-01 -2.642808258533477783e-01 3.509388864040374756e-01
-1.706281602382659912e-01 -2.844155430793762207e-01 3.722608089447021484e-01
-1.759026646614074707e-01 -2.915657162666320801e-01 3.130090236663818359e-01
-1.314264237880706787e-01 -9.886230528354644775e-02 3.186111748218536377e-01
-1.500016152858734131e-01 -8.117646723985671997e-02 3.045253157615661621e-01
-1.371868103742599487e-01 -9.977395087480545044e-02 3.207303583621978760e-01
-1.445153206586837769e-01 -7.512772828340530396e-02 2.988063395023345947e-01
-1.846145242452621460e-01 -2.623625695705413818e-01 3.612509369850158691e-01
-1.813207715749740601e-01 -2.672774195671081543e-01 3.351972401142120361e-01
-1.839424222707748413e-01 -2.764451205730438232e-01 3.123615086078643799e-01
-1.996754556894302368e-01 -2.911524176597595215e-01 3.248553574085235596e-01
-1.900261491537094116e-01 -2.763495743274688721e-01 3.556209802627563477e-01
-1.874920427799224854e-01 -2.671332061290740967e-01 3.602437078952789307e-01
-1.886823624372482300e-01 -2.497300803661346436e-01 3.113848268985748291e-01
-1.400335431098937988e-01 -8.770702779293060303e-02 3.307999670505523682e-01
-1.738694012165069580e-01 -2.768825292587280273e-01 3.778001964092254639e-01
-1.866607069969177246e-01 -2.808455228805541992e-01 3.570710122585296631e-01
-1.890556514263153076e-01 -2.615352869033813477e-01 3.440854549407958984e-01
-2.043970823287963867e-01 -2.436913400888442993e-01 3.217831552028656006e-01
-1.904771625995635986e-01 -2.392160743474960327e-01 3.263858556747436523e-01
-1.796400099992752075e-01 -2.822425961494445801e-01 3.154673278331756592e-01
-1.894560754299163818e-01 -2.773666381835937500e-01 3.115736246109008789e-01
-1.872849911451339722e-01 -2.624378204345703125e-01 3.067604601383209229e-01
-1.897329688072204590e-01 -2.781578004360198975e-01 3.528958857059478760e-01
-1.732526123523712158e-01 -2.684313058853149414e-01 3.096797764301300049e-01
-1.985566467046737671e-01 -2.509490251541137695e-01 3.208714723587036133e-01
-1.817708909511566162e-01 -2.939282953739166260e-01 3.449296951293945312e-01
-1.845048666000366211e-01 -2.751019895076751709e-01 3.599885702133178711e-01
-1.273354440927505493e-01 -8.735539019107818604e-02 3.258766829967498779e-01
-1.979826986789703369e-01 -2.705743610858917236e-01 3.399989008903503418e-01
-1.660510301589965820e-01 -2.678336203098297119e-01 3.321428894996643066e-01
-1.742015928030014038e-01 -2.814128696918487549e-01 3.338316380977630615e-01
-1.435580402612686157e-01 -9.130641818046569824e-02 3.188933730125427246e-01
-1.508912295103073120e-01 -8.401420712471008301e-02 3.072594106197357178e-01
-1.902793347835540771e-01 -2.875669300556182861e-01 3.183823227882385254e-01
-1.457712948322296143e-01 -6.567974388599395752e-02 3.030878901481628418e-01
-1.457729488611221313e-01 -9.993973374366760254e-02 3.161799907684326172e-01
-1.867863237857818604e-01 -2.798987329006195068e-01 3.568747639656066895e-01
-1.982604265213012695e-01 -2.568638920783996582e-01 3.223129510879516602e-01
-1.525155007839202881e-01 -8.389405161142349243e-02 3.101286590099334717e-01
-1.422498971223831177e-01 -9.165688604116439819e-02 3.183460235595703125e-01
-1.577472090721130371e-01 -9.496777504682540894e-02 3.266459703445434570e-01
-1.798736155033111572e-01 -3.026288449764251709e-01 3.163671195507049561e-01
-1.539404541254043579e-01 -7.457097619771957397e-02 3.061153590679168701e-01
-1.388833075761795044e-01 -8.187421411275863647e-02 3.103385567665100098e-01
-1.843457520008087158e-01 -2.763299942016601562e-01 3.595211207866668701e-01
-1.859155744314193726e-01 -2.829130887985229492e-01 3.389475941658020020e-01
-1.877161711454391479e-01 -2.698864638805389404e-01 3.626926541328430176e-01
-1.999243795871734619e-01 -2.704887092113494873e-01 3.202788531780242920e-01
-1.646184176206588745e-01 -2.631171047687530518e-01 3.434069752693176270e-01
-1.825287640094757080e-01 -2.727225720882415771e-01 3.605929911136627197e-01
-1.820620894432067871e-01 -2.970792949199676514e-01 3.109115958213806152e-01
-1.877345740795135498e-01 -2.552410662174224854e-01 3.206409811973571777e-01
-1.939081400632858276e-01 -2.794373929500579834e-01 3.162619471549987793e-01
-1.460020542144775391e-01 -9.330855309963226318e-02 3.197657465934753418e-01
-1.434371173381805420e-01 -9.893718361854553223e-02 3.269198536872863770e-01
-1.672070473432540894e-01 -2.733011841773986816e-01 3.499378263950347900e-01
-1.822235137224197388e-01 -2.825645208358764648e-01 3.204086124897003174e-01
-1.732002794742584229e-01 -2.751875817775726318e-01 3.305690586566925049e-01
-1.844472587108612061e-01 -2.850124239921569824e-01 3.558765053749084473e-01
-1.950067728757858276e-01 -2.592616081237792969e-01 3.156278431415557861e-01
-1.480520367622375488e-01 -8.572755008935928345e-02 3.366034030914306641e-01
-1.533261835575103760e-01 -7.460311055183410645e-02 3.061031699180603027e-01
-1.791177988052368164e-01 -2.833738029003143311e-01 3.125877678394317627e-01
-1.377031207084655762e-01 -9.294722229242324829e-02 3.146222829818725586e-01
-1.496877521276473999e-01 -8.661381900310516357e-02 3.066000342369079590e-01
-1.439127624034881592e-01 -1.164840608835220337e-01 3.205254971981048584e-01
-1.816657632589340210e-01 -2.468259781599044800e-01 3.286126554012298584e-01
-1.788653284311294556e-01 -2.843494415283203125e-01 3.603290319442749023e-01
-1.380479484796524048e-01 -9.720395505428314209e-02 3.341283500194549561e-01
9.103176742792129517e-02 -2.568089663982391357e-01 -1.211933791637420654e-01
-1.855397224426269531e-01 -2.756220996379852295e-01 3.488610982894897461e-01
-1.865996122360229492e-01 -2.667724192142486572e-01 3.157010376453399658e-01
-1.951576620340347290e-01 -2.774553298950195312e-01 3.650778532028198242e-01
-1.457498073577880859e-01 -9.796521067619323730e-02 3.138672411441802979e-01
-1.346205025911331177e-01 -9.744314104318618774e-02 3.225540518760681152e-01
-1.915913969278335571e-01 -2.784958779811859131e-01 3.716115057468414307e-01
-1.355810761451721191e-01 -9.250754117965698242e-02 3.370998501777648926e-01
-1.820562183856964111e-01 -2.713397741317749023e-01 3.504813015460968018e-01
-1.368902921676635742e-01 -8.760044723749160767e-02 3.288456499576568604e-01
-1.717060208320617676e-01 -2.763680815696716309e-01 3.320090472698211670e-01
-1.802193671464920044e-01 -2.645660936832427979e-01 3.359424769878387451e-01
-1.853259652853012085e-01 -2.817359268665313721e-01 3.245141208171844482e-01
-1.433064639568328857e-01 -1.009224578738212585e-01 3.268938064575195312e-01
-1.681998819112777710e-01 -2.741082012653350830e-01 3.221366107463836670e-01
-1.888788938522338867e-01 -2.851847410202026367e-01 3.233303725719451904e-01
-1.808637976646423340e-01 -2.802478969097137451e-01 3.151307404041290283e-01
-1.426997035741806030e-01 -1.103637591004371643e-01 3.164162635803222656e-01
-1.705382019281387329e-01 -2.861905097961425781e-01 3.331650495529174805e-01
-1.449376195669174194e-01 -9.124177694320678711e-02 3.309885859489440918e-01
-1.812070310115814209e-01 -2.927262187004089355e-01 3.518718481063842773e-01
-1.948071867227554321e-01 -2.927144169807434082e-01 3.318481445312500000e-01
-1.960475444793701172e-01 -2.703504264354705811e-01 3.204517364501953125e-01
-1.727176904678344727e-01 -2.845457792282104492e-01 3.937413990497589111e-01
-1.671393364667892456e-01 -2.660429179668426514e-01 3.206435143947601318e-01
-1.382076889276504517e-01 -1.014120951294898987e-01 3.221039772033691406e-01
-1.625718176364898682e-01 -2.716218531131744385e-01 3.284248411655426025e-01
-1.907859295606613159e-01 -2.861856222152709961e-01 3.697947263717651367e-01
-1.862280219793319702e-01 -2.625501155853271484e-01 3.363589346408843994e-01
-1.724711209535598755e-01 -2.731238007545471191e-01 3.606725931167602539e-01
-1.749882549047470093e-01 -2.782484889030456543e-01 3.324631750583648682e-01
-1.796386986970901489e-01 -2.867591381072998047e-01 3.831169307231903076e-01
-1.726585179567337036e-01 -2.719886898994445801e-01 3.628320991992950439e-01
-1.809600740671157837e-01 -2.910626530647277832e-01 3.153173923492431641e-01
-1.454412192106246948e-01 -1.079061850905418396e-01 3.284487724304199219e-01
-1.787167191505432129e-01 -2.688714265823364258e-01 3.487340509891510010e-01
-1.788295358419418335e-01 -2.733023464679718018e-01 3.753719031810760498e-01
-1.721705943346023560e-01 -2.794186174869537354e-01 3.442873358726501465e-01
9.124363958835601807e-02 -2.583399116992950439e-01 -1.214247271418571472e-01
-1.828507632017135620e-01 -2.816304266452789307e-01 3.541183769702911377e-01
-1.839367598295211792e-01 -2.809268534183502197e-01 3.838814198970794678e-01
-1.804345399141311646e-01 -2.476151436567306519e-01 3.218441307544708252e-01
-1.639991998672485352e-01 -8.513753861188888550e-02 3.202428817749023438e-01
-1.573816835880279541e-01 -9.416373074054718018e-02 3.078097999095916748e-01
-1.590654402971267700e-01 -9.608055651187896729e-02 3.250068724155426025e-01
-1.981444209814071655e-01 -2.627967894077301025e-01 3.092436492443084717e-01
-1.865210831165313721e-01 -2.834106385707855225e-01 3.402343988418579102e-01
-1.791250705718994141e-01 -2.695916295051574707e-01 3.451142311096191406e-01
-1.670141816139221191e-01 -2.814008593559265137e-01 3.579482138156890869e-01
-1.785348206758499146e-01 -2.980256378650665283e-01 3.131905198097229004e-01
-1.833671778440475464e-01 -2.625815570354461670e-01 3.394348621368408203e-01
-1.729933023452758789e-01 -2.930824160575866699e-01 3.204919993877410889e-01
-1.842429935932159424e-01 -2.662658393383026123e-01 3.183564841747283936e-01
-1.727446615695953369e-01 -2.785301804542541504e-01 3.390749692916870117e-01
-1.640037745237350464e-01 -2.812413275241851807e-01 3.445285260677337646e-01
-1.260618716478347778e-01 -9.626304358243942261e-02 3.242077529430389404e-01
-1.726646125316619873e-01 -2.822683751583099365e-01 3.835596740245819092e-01
-1.979362368583679199e-01 -2.786874175071716309e-01 3.474726080894470215e-01
-1.768301427364349365e-01 -2.736562192440032959e-01 3.670899271965026855e-01
-1.872990876436233521e-01 -2.667640447616577148e-01 3.148845732212066650e-01
-1.758420318365097046e-01 -2.638181746006011963e-01 3.254726231098175049e-01
-1.559821069240570068e-01 -2.795998454093933105e-01 3.353490233421325684e-01
-1.751274913549423218e-01 -2.625850439071655273e-01 3.006688058376312256e-01
-1.468036621809005737e-01 -9.848584234714508057e-02 3.138279020786285400e-01
-1.593925803899765015e-01 -1.156678870320320129e-01 3.214007318019866943e-01
-1.746857166290283203e-01 -2.938807904720306396e-01 3.475864827632904053e-01
-1.781750768423080444e-01 -2.876934707164764404e-01 3.531390428543090820e-01
-1.747530996799468994e-01 -2.677812874317169189e-01 3.461831808090209961e-01
-1.330292075872421265e-01 -9.757458418607711792e-02 3.272921144962310791e-01
-1.380845457315444946e-01 -9.831077605485916138e-02 3.310405910015106201e-01
-1.716273874044418335e-01 -2.603827416896820068e-01 3.358205854892730713e-01
-1.888325959444046021e-01 -2.678855955600738525e-01 3.163601458072662354e-01
-1.832738816738128662e-01 -2.807647287845611572e-01 3.351228237152099609e-01
-1.453964710235595703e-01 -1.054947227239608765e-01 3.240728974342346191e-01
-1.356043666601181030e-01 -8.870923519134521484e-02 3.237598240375518799e-01
-1.763166338205337524e-01 -2.802057862281799316e-01 3.675241172313690186e-01
-1.912954300642013550e-01 -2.776785492897033691e-01 3.142564296722412109e-01
-1.927012950181961060e-01 -2.901982665061950684e-01 3.103362321853637695e-01
-1.736717224121093750e-01 -2.698504328727722168e-01 2.991605401039123535e-01
-1.861589998006820679e-01 -2.679611444473266602e-01 3.237349390983581543e-01
-1.616566181182861328e-01 -1.008860617876052856e-01 3.220512270927429199e-01
-1.732776761054992676e-01 -2.735973596572875977e-01 3.345850706100463867e-01
-1.986955851316452026e-01 -2.891479432582855225e-01 3.156352341175079346e-01
-1.804812997579574585e-01 -2.918053567409515381e-01 3.577721118927001953e-01
-1.920051425695419312e-01 -2.394238561391830444e-01 3.237489163875579834e-01
-1.873863637447357178e-01 -2.684708833694458008e-01 3.622687160968780518e-01
-1.904377639293670654e-01 -2.612334191799163818e-01 3.400980830192565918e-01
-1.694241017103195190e-01 -2.804462909698486328e-01 3.470670580863952637e-01
-1.824269294738769531e-01 -2.531763613224029541e-01 3.335615098476409912e-01
-1.795769482851028442e-01 -2.641885578632354736e-01 3.391079306602478027e-01
-1.971514672040939331e-01 -2.436365932226181030e-01 3.137459158897399902e-01
-2.088703662157058716e-01 -2.554886341094970703e-01 3.225036561489105225e-01
-1.682741791009902954e-01 -2.683205306529998779e-01 3.388466835021972656e-01
-1.523879617452621460e-01 -7.532187551259994507e-02 3.133906126022338867e-01
-1.667159646749496460e-01 -2.730319499969482422e-01 3.636684119701385498e-01
-1.748982220888137817e-01 -2.765818238258361816e-01 3.241176903247833252e-01
-1.726340204477310181e-01 -2.763932347297668457e-01 3.384443819522857666e-01
-1.488088220357894897e-01 -8.541814982891082764e-02 3.024486303329467773e-01
-1.447164863348007202e-01 -1.172461658716201782e-01 3.205603063106536865e-01
-1.781810969114303589e-01 -2.815752625465393066e-01 3.309727907180786133e-01
-1.695807576179504395e-01 -2.820470929145812988e-01 3.485907912254333496e-01
-1.899596303701400757e-01 -2.785268723964691162e-01 3.602761924266815186e-01
-1.485428661108016968e-01 -8.777303248643875122e-02 3.186051547527313232e-01
-1.763941645622253418e-01 -2.917726337909698486e-01 3.629737794399261475e-01
-1.890046596527099609e-01 -2.699916660785675049e-01 3.369268774986267090e-01
-1.460590064525604248e-01 -6.471572071313858032e-02 3.057332336902618408e-01
9.333816170692443848e-02 -2.742742896080017090e-01 -1.213322803378105164e-01
-1.959744095802307129e-01 -2.402172833681106567e-01 3.223880529403686523e-01
-1.481291055679321289e-01 -8.209475874900817871e-02 3.401011526584625244e-01
-1.888343244791030884e-01 -2.513229846954345703e-01 3.176466226577758789e-01
-1.746650338172912598e-01 -2.684750258922576904e-01 3.306964039802551270e-01
-1.905868500471115112e-01 -2.928538024425506592e-01 3.186089992523193359e-01
-1.934897303581237793e-01 -2.848111987113952637e-01 3.409669995307922363e-01
-1.612222343683242798e-01 -2.598428130149841309e-01 3.352308571338653564e-01
-1.738840043544769287e-01 -2.873331904411315918e-01 3.153492510318756104e-01
-1.663306206464767456e-01 -2.795604169368743896e-01 3.581808805465698242e-01
-1.450378596782684326e-01 -8.953529596328735352e-02 3.245568275451660156e-01
-1.739263683557510376e-01 -2.718507349491119385e-01 3.468483388423919678e-01
-1.840050816535949707e-01 -2.675291895866394043e-01 3.286974430084228516e-01
-1.863039433956146240e-01 -2.887149751186370850e-01 3.480279147624969482e-01
-1.380812078714370728e-01 -9.537293761968612671e-02 3.357127606868743896e-01
-1.872807592153549194e-01 -2.799975574016571045e-01 3.447368144989013672e-01
-1.479929089546203613e-01 -8.445759862661361694e-02 3.271325826644897461e-01
-1.841344386339187622e-01 -2.943437397480010986e-01 3.613802194595336914e-01
1.015557628124952316e-02 -4.184421598911285400e-01 -9.673437476158142090e-02
-1.797751933336257935e-01 -2.753021121025085449e-01 3.061098158359527588e-01
-1.640297025442123413e-01 -2.711816430091857910e-01 3.419756889343261719e-01
-1.853483617305755615e-01 -2.558933198451995850e-01 3.107856810092926025e-01
-1.543769389390945435e-01 -2.762019634246826172e-01 3.310015797615051270e-01
-1.924071311950683594e-01 -2.849186062812805176e-01 3.394957184791564941e-01
8.788617700338363647e-02 -2.712307274341583252e-01 -1.199973002076148987e-01
-1.816431879997253418e-01 -2.865598499774932861e-01 3.864539861679077148e-01
-1.263573765754699707e-01 -9.878171235322952271e-02 3.321502804756164551e-01
-1.639220714569091797e-01 -2.638682723045349121e-01 3.247431814670562744e-01
-1.857127100229263306e-01 -2.855956256389617920e-01 3.264412581920623779e-01
-1.563658863306045532e-01 -2.792582809925079346e-01 3.302014172077178955e-01
-1.882348954677581787e-01 -2.740799188613891602e-01 3.638686835765838623e-01
-1.947433501482009888e-01 -2.705443501472473145e-01 3.330663442611694336e-01
-1.742143481969833374e-01 -2.910833656787872314e-01 3.411594331264495850e-01
-1.459062099456787109e-01 -1.062161028385162354e-01 3.221163451671600342e-01
-1.700737327337265015e-01 -2.771215140819549561e-01 3.446302115917205811e-01
-1.827815175056457520e-01 -2.927205860614776611e-01 3.203563392162322998e-01
-1.392578333616256714e-01 -8.095394074916839600e-02 3.087527453899383545e-01
1.022305488586425781e-01 -1.665470451116561890e-01 -1.005135402083396912e-01
-1.581289917230606079e-01 -2.645236849784851074e-01 3.330499529838562012e-01
-1.700732409954071045e-01 -2.846938073635101318e-01 3.294151425361633301e-01
-1.834672391414642334e-01 -2.798594534397125244e-01 3.419702649116516113e-01
-1.681608259677886963e-01 -2.753259241580963135e-01 3.486269116401672363e-01
-1.830767393112182617e-01 -2.438386827707290649e-01 3.277036845684051514e-01
-1.543621271848678589e-01 -8.714944869279861450e-02 3.219763934612274170e-01
-1.883899271488189697e-01 -2.830969095230102539e-01 3.079926967620849609e-01
-1.748901307582855225e-01 -2.840990722179412842e-01 3.601870536804199219e-01
-1.479203850030899048e-01 -9.279379248619079590e-02 3.275458514690399170e-01
-2.009587734937667847e-01 -2.425841689109802246e-01 3.192105889320373535e-01
8.366420865058898926e-02 -2.577486336231231689e-01 -1.191015914082527161e-01
-1.777382045984268188e-01 -2.722869217395782471e-01 3.633995652198791504e-01
-1.814197748899459839e-01 -2.771724164485931396e-01 3.872336447238922119e-01
-1.769289076328277588e-01 -2.693693041801452637e-01 3.462766110897064209e-01
-1.648434698581695557e-01 -2.697430253028869629e-01 3.287798762321472168e-01
-1.509509235620498657e-01 -8.572766184806823730e-02 3.217665255069732666e-01
-1.818042546510696411e-01 -2.757985889911651611e-01 3.139204680919647217e-01
-1.838652342557907104e-01 -2.759975194931030273e-01 3.648265898227691650e-01
-1.751513332128524780e-01 -2.861357033252716064e-01 3.627613484859466553e-01
-1.694902181625366211e-01 -2.813635170459747314e-01 3.471179902553558350e-01
-1.688511222600936890e-01 -2.771363258361816406e-01 3.404259383678436279e-01
-1.677420437335968018e-01 -2.678031325340270996e-01 3.632711470127105713e-01
-1.382353603839874268e-01 -8.734470605850219727e-02 3.343757688999176025e-01
-1.898763179779052734e-01 -2.721866071224212646e-01 3.339943587779998779e-01
-1.648706048727035522e-01 -8.607682585716247559e-02 3.179777264595031738e-01
-1.745286583900451660e-01 -2.632406353950500488e-01 3.009203672409057617e-01
-1.848062127828598022e-01 -2.666838169097900391e-01 3.427076637744903564e-01
-1.814682781696319580e-01 -2.481962740421295166e-01 3.296306133270263672e-01
-1.899800300598144531e-01 -2.763886153697967529e-01 3.593311011791229248e-01
-1.886516660451889038e-01 -2.835905551910400391e-01 3.096480369567871094e-01
-1.459103971719741821e-01 -6.900293380022048950e-02 2.994866073131561279e-01
-2.049548178911209106e-01 -2.636922895908355713e-01 3.188010752201080322e-01
-1.861908137798309326e-01 -2.643469870090484619e-01 3.069075942039489746e-01
-1.839163899421691895e-01 -2.796202301979064941e-01 3.463602662086486816e-01
-1.362186819314956665e-01 -1.029302626848220825e-01 3.239222764968872070e-01
-2.004250288009643555e-01 -2.932559251785278320e-01 3.204679191112518311e-01
-1.804484277963638306e-01 -2.841832339763641357e-01 3.585861623287200928e-01
-1.758944988250732422e-01 -2.764843702316284180e-01 3.862990438938140869e-01
-2.043728828430175781e-01 -2.580360472202301025e-01 3.131756782531738281e-01
9.183865785598754883e-02 -2.426400631666183472e-01 -1.184852570295333862e-01
-1.806180179119110107e-01 -2.743714451789855957e-01 3.015693426132202148e-01
8.582909405231475830e-02 -2.780089378356933594e-01 -1.176588311791419983e-01
-1.956220865249633789e-01 -2.548571527004241943e-01 3.275844454765319824e-01
-1.761020272970199585e-01 -2.774933278560638428e-01 3.222592771053314209e-01
-1.750065237283706665e-01 -2.828555703163146973e-01 3.565759956836700439e-01
-1.960297822952270508e-01 -2.994586825370788574e-01 3.238452672958374023e-01
-1.764654219150543213e-01 -2.993444204330444336e-01 3.261379897594451904e-01
-1.737358123064041138e-01 -2.714023888111114502e-01 3.600545525550842285e-01
-1.761531382799148560e-01 -2.760531902313232422e-01 3.827297389507293701e-01
-1.847891360521316528e-01 -3.026087582111358643e-01 3.172132670879364014e-01
-1.839279681444168091e-01 -2.764533162117004395e-01 2.990888953208923340e-01
-1.898108869791030884e-01 -2.784645855426788330e-01 3.419632613658905029e-01
-1.380559653043746948e-01 -9.763139486312866211e-02 3.182910680770874023e-01
-1.898815333843231201e-01 -2.682756185531616211e-01 3.433667719364166260e-01
-1.766491830348968506e-01 -2.682532668113708496e-01 3.481536507606506348e-01
