-1.527507603168487549e-01 -2.430624961853027344e-01 -1.837248951196670532e-01
-8.132171630859375000e-02 -1.594174653291702271e-01 -1.113959252834320068e-01
-4.454973638057708740e-01 -4.672550857067108154e-01 -4.254909455776214600e-01
-4.517199993133544922e-01 -4.705918133258819580e-01 -4.371319115161895752e-01
1.385217159986495972e-01 7.674384862184524536e-02 1.219837218523025513e-01
1.976728439331054688e-01 1.794983297586441040e-01 1.853774935007095337e-01
-4.118601605296134949e-02 -1.205678805708885193e-01 -7.579661160707473755e-02
-1.019958481192588806e-01 -1.909896135330200195e-01 -1.423460543155670166e-01
1.385496705770492554e-01 7.428031414747238159e-02 1.059382930397987366e-01
4.403165280818939209e-01 4.094625711441040039e-01 4.221567809581756592e-01
2.701297402381896973e-01 2.557767331600189209e-01 2.496815770864486694e-01
-3.894956111907958984e-01 -4.435475766658782959e-01 -3.793148696422576904e-01
3.527975976467132568e-01 3.276645243167877197e-01 3.423880338668823242e-01
1.142307668924331665e-01 4.765482991933822632e-02 7.940087467432022095e-02
6.748577952384948730e-02 -1.982226409018039703e-02 2.823523432016372681e-02
3.058900237083435059e-01 2.804971337318420410e-01 2.914573848247528076e-01
3.331712186336517334e-01 3.113031983375549316e-01 3.289920985698699951e-01
2.197095155715942383e-01 2.163439542055130005e-01 2.099131494760513306e-01
-2.599605917930603027e-01 -3.461632728576660156e-01 -2.878971397876739502e-01
-2.258168458938598633e-01 -3.134579062461853027e-01 -2.633298337459564209e-01
1.239903122186660767e-01 5.423678830265998840e-02 9.211290627717971802e-02
9.343842417001724243e-02 1.542130764573812485e-02 5.276536196470260620e-02
4.259580075740814209e-01 3.990296125411987305e-01 4.057528376579284668e-01
7.782706618309020996e-02 -6.693770177662372589e-03 3.788733854889869690e-02
-2.638714909553527832e-01 -3.494008779525756836e-01 -2.929213345050811768e-01
9.830594807863235474e-02 1.800401695072650909e-02 5.453288555145263672e-02
-8.881586045026779175e-02 -1.754486858844757080e-01 -1.265511363744735718e-01
2.906784713268280029e-01 2.604344189167022705e-01 2.670672833919525146e-01
-3.918074369430541992e-01 -4.454473257064819336e-01 -3.844459950923919678e-01
-1.100992634892463684e-01 -2.012899369001388550e-01 -1.515399217605590820e-01
3.505158722400665283e-01 3.257116973400115967e-01 3.397910296916961670e-01
-8.523326367139816284e-03 -9.557875990867614746e-02 -4.832726716995239258e-02
1.830553114414215088e-01 1.431368142366409302e-01 1.670634895563125610e-01
2.261882722377777100e-01 2.218834757804870605e-01 2.117417305707931519e-01
2.983480095863342285e-01 2.633523344993591309e-01 2.716139853000640869e-01
-1.793166846036911011e-01 -2.664154469966888428e-01 -2.052714079618453979e-01
-3.736651269719004631e-03 -9.437290579080581665e-02 -4.614133387804031372e-02
-1.031783074140548706e-01 -1.901737004518508911e-01 -1.467137932777404785e-01
4.431549906730651855e-01 4.173182547092437744e-01 4.230381250381469727e-01
-2.903868556022644043e-01 -3.913357257843017578e-01 -3.269261121749877930e-01
2.590059041976928711e-01 2.515246272087097168e-01 2.448716610670089722e-01
1.215464919805526733e-01 5.104342848062515259e-02 8.546519279479980469e-02
-3.898862004280090332e-01 -4.474150836467742920e-01 -3.827315568923950195e-01
4.873282462358474731e-02 -2.934773452579975128e-02 1.425628084689378738e-02
-1.597511619329452515e-01 -2.524615228176116943e-01 -1.924828588962554932e-01
-4.322172701358795166e-01 -4.561704397201538086e-01 -4.105079770088195801e-01
-1.726073175668716431e-01 -2.588793039321899414e-01 -1.965948492288589478e-01
-1.844486296176910400e-01 -2.663468420505523682e-01 -2.129501104354858398e-01
8.967696875333786011e-02 3.587276150938123465e-04 4.443654417991638184e-02
-3.357814550399780273e-01 -4.184923768043518066e-01 -3.477530479431152344e-01
4.117879271507263184e-01 3.865863084793090820e-01 3.942255973815917969e-01
1.507655382156372070e-01 9.552426636219024658e-02 1.410668939352035522e-01
-1.400250941514968872e-01 -2.373583912849426270e-01 -1.742791682481765747e-01
1.592588275671005249e-01 1.085465773940086365e-01 1.497263610363006592e-01
3.117761015892028809e-01 2.885802686214447021e-01 3.079980909824371338e-01
-4.395205974578857422e-01 -4.630481898784637451e-01 -4.254027009010314941e-01
4.261626005172729492e-01 3.998404145240783691e-01 4.090547859668731689e-01
1.498170942068099976e-01 9.420546144247055054e-02 1.450873017311096191e-01
-4.891876876354217529e-01 -4.921064376831054688e-01 -4.810296595096588135e-01
4.193035885691642761e-03 -8.659589290618896484e-02 -3.883021697402000427e-02
1.889222860336303711e-01 1.664565354585647583e-01 1.816271543502807617e-01
1.729756146669387817e-01 1.168707534670829773e-01 1.578237861394882202e-01
3.088070452213287354e-01 2.859122455120086670e-01 3.020163476467132568e-01
-2.189534306526184082e-01 -3.066352307796478271e-01 -2.536330223083496094e-01
-2.248140424489974976e-01 -3.114807903766632080e-01 -2.609910666942596436e-01
-4.217254221439361572e-01 -4.550871253013610840e-01 -4.060638546943664551e-01
2.001328170299530029e-01 1.752987354993820190e-01 1.854080408811569214e-01
-6.927806884050369263e-02 -1.457579284906387329e-01 -1.044864505529403687e-01
-2.243611365556716919e-01 -3.134018480777740479e-01 -2.681665718555450439e-01
-4.677373766899108887e-01 -4.781189560890197754e-01 -4.445922672748565674e-01
3.778185248374938965e-01 3.448651432991027832e-01 3.618966341018676758e-01
4.014697670936584473e-01 3.725107014179229736e-01 3.879067897796630859e-01
3.777318894863128662e-01 3.469938337802886963e-01 3.609585464000701904e-01
-1.605215817689895630e-01 -2.496282756328582764e-01 -1.947169005870819092e-01
1.282150149345397949e-01 5.781429260969161987e-02 9.385830909013748169e-02
-4.120945036411285400e-01 -4.503991007804870605e-01 -3.995883166790008545e-01
-1.337360441684722900e-01 -2.211733311414718628e-01 -1.668683290481567383e-01
-2.756993770599365234e-01 -3.719767332077026367e-01 -3.137579858303070068e-01
-2.961624264717102051e-01 -3.961856663227081299e-01 -3.253567814826965332e-01
-3.694426119327545166e-01 -4.409170746803283691e-01 -3.646313548088073730e-01
-4.933469295501708984e-01 -4.952539205551147461e-01 -4.831241667270660400e-01
-3.319216072559356689e-01 -4.166039526462554932e-01 -3.502298295497894287e-01
-1.626927554607391357e-01 -2.491218894720077515e-01 -1.924905925989151001e-01
-3.781217932701110840e-01 -4.404624700546264648e-01 -3.687649369239807129e-01
3.045623004436492920e-01 2.739363908767700195e-01 2.839330732822418213e-01
-1.075188592076301575e-01 -1.977128088474273682e-01 -1.516983658075332642e-01
-3.441354036331176758e-01 -4.240350425243377686e-01 -3.511977493762969971e-01
-8.222436159849166870e-02 -1.647757589817047119e-01 -1.207083687186241150e-01
-3.521243631839752197e-01 -4.259354472160339355e-01 -3.539696931838989258e-01
2.258536219596862793e-01 2.232080847024917603e-01 2.095050662755966187e-01
-2.155742198228836060e-01 -3.046298027038574219e-01 -2.553257346153259277e-01
3.269849121570587158e-01 3.035205602645874023e-01 3.221044540405273438e-01
3.577412664890289307e-01 3.317101001739501953e-01 3.466765582561492920e-01
4.135718047618865967e-01 3.875505626201629639e-01 4.005131423473358154e-01
-2.284624874591827393e-01 -3.175711035728454590e-01 -2.700558006763458252e-01
-4.295329451560974121e-01 -4.569033980369567871e-01 -4.139395654201507568e-01
8.286364376544952393e-02 -2.113768830895423889e-03 3.902930766344070435e-02
3.061883151531219482e-01 2.782955467700958252e-01 2.934840917587280273e-01
-2.682247459888458252e-01 -3.606761693954467773e-01 -2.954521477222442627e-01
-4.342180192470550537e-01 -4.569263160228729248e-01 -4.141969084739685059e-01
2.445848435163497925e-01 2.390147298574447632e-01 2.323198765516281128e-01
1.676051169633865356e-01 1.167090758681297302e-01 1.532077640295028687e-01
-2.798917293548583984e-01 -3.824664354324340820e-01 -3.181303143501281738e-01
-1.831448674201965332e-01 -2.689096629619598389e-01 -2.131769508123397827e-01
1.049927622079849243e-01 3.774508461356163025e-02 7.669100910425186157e-02
-4.645237326622009277e-01 -4.737289547920227051e-01 -4.455808699131011963e-01
5.790844094008207321e-03 -8.647428452968597412e-02 -3.272892162203788757e-02
-2.507863938808441162e-01 -3.409600555896759033e-01 -2.833773791790008545e-01
-4.333863556385040283e-01 -4.580255150794982910e-01 -4.120185077190399170e-01
5.229404941201210022e-02 -2.655234374105930328e-02 1.758285798132419586e-02
1.988131999969482422e-01 1.742130070924758911e-01 1.832248866558074951e-01
1.965133994817733765e-01 1.748565733432769775e-01 1.820464283227920532e-01
3.704372048377990723e-01 3.389966189861297607e-01 3.520583510398864746e-01
2.870910465717315674e-01 2.640909254550933838e-01 2.656989693641662598e-01
-1.267893016338348389e-01 -2.174104899168014526e-01 -1.606488525867462158e-01
4.213579893112182617e-01 3.954929113388061523e-01 4.066266715526580811e-01
2.752701640129089355e-01 2.584141790866851807e-01 2.513594925403594971e-01
-4.547707438468933105e-01 -4.695565998554229736e-01 -4.395033717155456543e-01
1.760134696960449219e-01 1.191588640213012695e-01 1.573465019464492798e-01
1.424312144517898560e-01 8.585564792156219482e-02 1.315720826387405396e-01
-1.647006571292877197e-01 -2.509996294975280762e-01 -1.938004791736602783e-01
3.335870802402496338e-01 3.086110353469848633e-01 3.253996074199676514e-01
-4.876768290996551514e-01 -4.837394654750823975e-01 -4.737839400768280029e-01
-7.706654816865921021e-02 -1.506702452898025513e-01 -1.063081473112106323e-01
9.202126413583755493e-02 1.143895182758569717e-02 4.754896834492683411e-02
5.080154165625572205e-02 -2.603044360876083374e-02 1.172807533293962479e-02
1.854234635829925537e-01 1.453124433755874634e-01 1.636808663606643677e-01
4.414193928241729736e-01 4.096941649913787842e-01 4.210124611854553223e-01
1.201077923178672791e-02 -6.652455776929855347e-02 -1.153552811592817307e-02
-2.238933593034744263e-01 -3.155278861522674561e-01 -2.679601311683654785e-01
-4.759379923343658447e-01 -4.817073047161102295e-01 -4.575569331645965576e-01
-3.214673995971679688e-01 -4.116561412811279297e-01 -3.437162339687347412e-01
2.378076165914535522e-01 2.291597872972488403e-01 2.167141586542129517e-01
4.259117245674133301e-01 3.955259025096893311e-01 4.046371579170227051e-01
-1.154108271002769470e-01 -2.009219676256179810e-01 -1.531074941158294678e-01
9.559670835733413696e-02 1.468480192124843597e-02 5.655493214726448059e-02
3.950409889221191406e-01 3.647376894950866699e-01 3.726899027824401855e-01
4.540352523326873779e-01 4.328954517841339111e-01 4.394260048866271973e-01
-4.904221594333648682e-01 -4.863265454769134521e-01 -4.737475216388702393e-01
-2.924281656742095947e-01 -3.876388072967529297e-01 -3.249622583389282227e-01
2.128514796495437622e-01 2.009719461202621460e-01 2.044785320758819580e-01
-1.979362592101097107e-02 -1.032994836568832397e-01 -5.838470906019210815e-02
-8.844167739152908325e-02 -1.740024685859680176e-01 -1.231584772467613220e-01
1.934758126735687256e-01 1.661993861198425293e-01 1.811423748731613159e-01
9.669658541679382324e-02 1.301791798323392868e-02 5.110054835677146912e-02
2.634207010269165039e-01 2.527600824832916260e-01 2.510614097118377686e-01
-3.721087574958801270e-01 -4.383185505867004395e-01 -3.687171936035156250e-01
1.231793910264968872e-01 5.257510393857955933e-02 9.045462310314178467e-02
-1.100059300661087036e-01 -1.945227980613708496e-01 -1.506330519914627075e-01
3.782866895198822021e-01 3.455322384834289551e-01 3.621276617050170898e-01
2.818585038185119629e-01 2.579775750637054443e-01 2.551275193691253662e-01
-4.400279745459556580e-02 -1.243197843432426453e-01 -8.040132373571395874e-02
7.004188746213912964e-02 -1.625214330852031708e-02 3.480454534292221069e-02
1.444162800908088684e-02 -6.704851984977722168e-02 -1.309298072010278702e-02
-3.070971667766571045e-01 -4.051086902618408203e-01 -3.323357403278350830e-01
3.126695156097412109e-01 2.867208123207092285e-01 3.001113235950469971e-01
1.571294814348220825e-01 9.880708903074264526e-02 1.472736746072769165e-01
-2.749564871191978455e-02 -1.060061231255531311e-01 -6.185670569539070129e-02
3.618569672107696533e-02 -3.225771710276603699e-02 8.271696045994758606e-03
4.285838827490806580e-02 -2.703557722270488739e-02 9.579498320817947388e-03
-1.939571350812911987e-01 -2.824962735176086426e-01 -2.307371348142623901e-01
3.927702009677886963e-01 3.582397997379302979e-01 3.678637742996215820e-01
-8.723728358745574951e-02 -1.772728264331817627e-01 -1.271712929010391235e-01
9.496862441301345825e-02 1.376002933830022812e-02 5.551746860146522522e-02
3.479167222976684570e-01 3.189963102340698242e-01 3.307026028633117676e-01
-4.615675285458564758e-02 -1.209881231188774109e-01 -7.850783318281173706e-02
-3.865624666213989258e-01 -4.432626664638519287e-01 -3.790803849697113037e-01
3.617394268512725830e-01 3.303129673004150391e-01 3.449321687221527100e-01
-1.309503428637981415e-02 -1.007080301642417908e-01 -5.449712648987770081e-02
1.901905536651611328e-01 1.692654192447662354e-01 1.810111105442047119e-01
-4.403248429298400879e-01 -4.608200788497924805e-01 -4.232048690319061279e-01
4.511090517044067383e-01 4.302152991294860840e-01 4.324428737163543701e-01
2.470114529132843018e-01 2.426550388336181641e-01 2.338995188474655151e-01
1.657813787460327148e-01 1.144533306360244751e-01 1.518038511276245117e-01
-3.378240168094635010e-01 -4.190785288810729980e-01 -3.485566675662994385e-01
-4.605151414871215820e-01 -4.723142385482788086e-01 -4.390941858291625977e-01
1.874153316020965576e-01 1.539196968078613281e-01 1.736342459917068481e-01
1.818840950727462769e-01 1.334299594163894653e-01 1.600560098886489868e-01
3.876813352108001709e-01 3.522312641143798828e-01 3.634175062179565430e-01
-2.788010537624359131e-01 -3.824893236160278320e-01 -3.193207085132598877e-01
-1.032399013638496399e-01 -1.887339502573013306e-01 -1.458206027746200562e-01
-4.468385279178619385e-01 -4.679926633834838867e-01 -4.326602816581726074e-01
-2.199930697679519653e-01 -3.061030209064483643e-01 -2.538193464279174805e-01
7.067339867353439331e-02 -1.540942676365375519e-02 3.047129139304161072e-02
-1.198177114129066467e-01 -2.100282162427902222e-01 -1.601274907588958740e-01
-1.206016093492507935e-01 -2.084077149629592896e-01 -1.606065481901168823e-01
-2.787052094936370850e-01 -3.751406073570251465e-01 -3.164500296115875244e-01
-3.503455221652984619e-01 -4.272386133670806885e-01 -3.577558994293212891e-01
1.836751550436019897e-01 1.365800648927688599e-01 1.650716662406921387e-01
4.284879565238952637e-01 4.013106524944305420e-01 4.084649384021759033e-01
-1.415733546018600464e-01 -2.384172528982162476e-01 -1.794525831937789917e-01
-3.344133123755455017e-02 -1.080488339066505432e-01 -6.698651611804962158e-02
-1.954406946897506714e-01 -2.812328934669494629e-01 -2.275344431400299072e-01
3.666360676288604736e-01 3.365726172924041748e-01 3.494645655155181885e-01
4.022907018661499023e-01 3.668659031391143799e-01 3.807613551616668701e-01
-3.492046594619750977e-01 -4.286149740219116211e-01 -3.554790019989013672e-01
1.655365899205207825e-02 -6.264958530664443970e-02 -1.249737385660409927e-02
1.863387227058410645e-01 1.495624929666519165e-01 1.654747575521469116e-01
3.138578534126281738e-01 2.853561937808990479e-01 3.048495650291442871e-01
1.808028817176818848e-01 1.264642179012298584e-01 1.592676043510437012e-01
-2.287308573722839355e-01 -3.197515010833740234e-01 -2.707792520523071289e-01
1.407075375318527222e-01 7.782654464244842529e-02 1.157817989587783813e-01
1.346041858196258545e-01 7.230129837989807129e-02 1.064342260360717773e-01
-3.453508019447326660e-01 -4.270542860031127930e-01 -3.543542921543121338e-01
3.764285892248153687e-02 -3.396453335881233215e-02 5.537386517971754074e-03
3.763852640986442566e-02 -3.363699465990066528e-02 7.294957060366868973e-03
-1.441326830536127090e-02 -9.864345192909240723e-02 -5.308389291167259216e-02
1.072453185915946960e-01 3.525621071457862854e-02 7.218229025602340698e-02
1.327897757291793823e-01 6.287675350904464722e-02 9.623408317565917969e-02
1.283744573593139648e-01 5.967653170228004456e-02 9.553945064544677734e-02
1.383583992719650269e-01 7.190983742475509644e-02 1.033071726560592651e-01
2.359863221645355225e-01 2.274817377328872681e-01 2.184609174728393555e-01
4.093896448612213135e-01 3.824364244937896729e-01 3.909193575382232666e-01
1.337248086929321289e-01 6.930610537528991699e-02 9.663381427526473999e-02
-2.303456515073776245e-01 -3.197582662105560303e-01 -2.684415876865386963e-01
1.299732774496078491e-01 6.579273939132690430e-02 9.385072439908981323e-02
-1.300229132175445557e-01 -2.221439033746719360e-01 -1.639857739210128784e-01
-1.449703872203826904e-01 -2.363394498825073242e-01 -1.790586709976196289e-01
1.218228414654731750e-01 5.687807500362396240e-02 9.151159971952438354e-02
1.363890320062637329e-01 7.613614946603775024e-02 1.155986487865447998e-01
1.711442470550537109e-01 1.199187338352203369e-01 1.550338566303253174e-01
2.660734392702579498e-02 -4.002948850393295288e-02 -1.988250995054841042e-03
-1.062471345067024231e-01 -1.895907223224639893e-01 -1.438806802034378052e-01
-3.621335029602050781e-01 -4.346237182617187500e-01 -3.576638102531433105e-01
-2.122197002172470093e-01 -3.028881847858428955e-01 -2.506661117076873779e-01
-2.015235424041748047e-01 -2.888198196887969971e-01 -2.369729131460189819e-01
-5.550730228424072266e-02 -1.319891810417175293e-01 -8.766919374465942383e-02
-2.804069817066192627e-01 -3.838905692100524902e-01 -3.197738528251647949e-01
1.577624678611755371e-02 -6.461703777313232422e-02 -1.143512967973947525e-02
1.208753734827041626e-01 5.227309837937355042e-02 9.025569260120391846e-02
3.154104650020599365e-01 2.867235541343688965e-01 3.062302172183990479e-01
-2.925941944122314453e-01 -3.899025619029998779e-01 -3.280439674854278564e-01
2.688425779342651367e-02 -4.654210433363914490e-02 -3.910407423973083496e-03
4.199302494525909424e-01 3.965275883674621582e-01 4.026759862899780273e-01
2.340179085731506348e-01 2.268877029418945312e-01 2.143590599298477173e-01
-2.661984562873840332e-01 -3.540333509445190430e-01 -2.963928282260894775e-01
-4.963085353374481201e-01 -4.991481602191925049e-01 -4.923866689205169678e-01
2.829141020774841309e-01 2.584962546825408936e-01 2.552873492240905762e-01
4.507361352443695068e-01 4.281284213066101074e-01 4.329735040664672852e-01
-4.298381805419921875e-01 -4.589776098728179932e-01 -4.093978106975555420e-01
2.452693432569503784e-01 2.378370612859725952e-01 2.330853193998336792e-01
4.958342295140028000e-03 -8.367935568094253540e-02 -3.635475784540176392e-02
-2.464439868927001953e-01 -3.339875340461730957e-01 -2.753023803234100342e-01
3.973546624183654785e-01 3.646601736545562744e-01 3.796648383140563965e-01
-1.151909958571195602e-02 -9.828218072652816772e-02 -4.781131818890571594e-02
-1.929601728916168213e-01 -2.737944126129150391e-01 -2.192308753728866577e-01
1.935174018144607544e-01 1.740507334470748901e-01 1.837890893220901489e-01
-4.994757175445556641e-01 -4.967211484909057617e-01 -4.954157769680023193e-01
-3.453220129013061523e-01 -4.233085811138153076e-01 -3.558043539524078369e-01
-3.996972143650054932e-01 -4.466002881526947021e-01 -3.838493525981903076e-01
3.080312907695770264e-01 2.772024273872375488e-01 2.880198061466217041e-01
-2.085939049720764160e-01 -2.936371862888336182e-01 -2.464062720537185669e-01
3.069101274013519287e-01 2.740319371223449707e-01 2.896591126918792725e-01
3.910126388072967529e-01 3.565307855606079102e-01 3.664393424987792969e-01
-9.794987738132476807e-02 -1.853864789009094238e-01 -1.331856697797775269e-01
-3.455067425966262817e-02 -1.079034879803657532e-01 -6.990472972393035889e-02
-2.407890558242797852e-01 -3.301815688610076904e-01 -2.709515392780303955e-01
-5.580357089638710022e-02 -1.334709078073501587e-01 -8.867587149143218994e-02
2.525435686111450195e-01 2.478076964616775513e-01 2.403303086757659912e-01
-7.918460667133331299e-02 -1.643613278865814209e-01 -1.184685379266738892e-01
1.428495198488235474e-01 8.461620658636093140e-02 1.298956125974655151e-01
1.608853042125701904e-01 1.074787750840187073e-01 1.534570604562759399e-01
-1.913950145244598389e-01 -2.744611203670501709e-01 -2.169368416070938110e-01
-5.527777969837188721e-02 -1.283676475286483765e-01 -8.968790620565414429e-02
-4.777466952800750732e-01 -4.813887774944305420e-01 -4.640645086765289307e-01
1.815108954906463623e-01 1.311976909637451172e-01 1.596210449934005737e-01
-1.691883206367492676e-01 -2.589753866195678711e-01 -1.995586603879928589e-01
3.070160746574401855e-01 2.772803306579589844e-01 2.932072579860687256e-01
9.872700087726116180e-03 -8.006069809198379517e-02 -2.752404659986495972e-02
2.384885847568511963e-01 2.276965826749801636e-01 2.210941165685653687e-01
1.800242811441421509e-01 1.273853480815887451e-01 1.629439592361450195e-01
3.153923749923706055e-01 2.922829985618591309e-01 3.095546662807464600e-01
-4.000383242964744568e-02 -1.203830912709236145e-01 -7.639468461275100708e-02
1.016719862818717957e-01 2.624549157917499542e-02 6.305782496929168701e-02
2.464841455221176147e-01 2.385427951812744141e-01 2.278078198432922363e-01
-2.376546859741210938e-01 -3.286123573780059814e-01 -2.696181833744049072e-01
4.442517161369323730e-01 4.182541370391845703e-01 4.291258752346038818e-01
-3.718801140785217285e-01 -4.408932030200958252e-01 -3.646907210350036621e-01
2.048734277486801147e-01 1.875347942113876343e-01 1.953868269920349121e-01
-3.119877353310585022e-02 -1.094361469149589539e-01 -7.104974240064620972e-02
3.386723622679710388e-02 -3.506151959300041199e-02 2.844003727659583092e-03
3.590084612369537354e-02 -3.501764312386512756e-02 4.914912395179271698e-03
4.579785764217376709e-01 4.352122545242309570e-01 4.374897480010986328e-01
2.055076658725738525e-01 1.874383538961410522e-01 1.950010806322097778e-01
-1.087584644556045532e-01 -1.965959817171096802e-01 -1.527023017406463623e-01
-3.155288398265838623e-01 -4.092848896980285645e-01 -3.410218060016632080e-01
-4.677503407001495361e-01 -4.753113687038421631e-01 -4.483593106269836426e-01
4.610066115856170654e-01 4.384850859642028809e-01 4.444809257984161377e-01
8.980351686477661133e-02 7.807522546499967575e-03 4.570511728525161743e-02
-4.924359321594238281e-01 -4.893225133419036865e-01 -4.773700535297393799e-01
3.186633884906768799e-01 2.965730130672454834e-01 3.176055550575256348e-01
-4.236494302749633789e-01 -4.559964239597320557e-01 -4.072797298431396484e-01
4.065095186233520508e-01 3.769979476928710938e-01 3.904965519905090332e-01
-4.361619949340820312e-01 -4.618932604789733887e-01 -4.181613624095916748e-01
-5.396870151162147522e-02 -1.320975422859191895e-01 -8.767776191234588623e-02
-4.458521604537963867e-01 -4.661602377891540527e-01 -4.253443181514739990e-01
-4.619100689888000488e-01 -4.738772213459014893e-01 -4.453035593032836914e-01
8.029301650822162628e-03 -7.824989408254623413e-02 -2.332429401576519012e-02
-1.599414795637130737e-01 -2.465409338474273682e-01 -1.909247189760208130e-01
-1.508275717496871948e-01 -2.431595325469970703e-01 -1.828837394714355469e-01
-2.786610722541809082e-01 -3.770186603069305420e-01 -3.132485449314117432e-01
3.542029857635498047e-01 3.269714117050170898e-01 3.388320505619049072e-01
2.890466153621673584e-01 2.626883983612060547e-01 2.630343735218048096e-01
-8.011565357446670532e-02 -1.639795452356338501e-01 -1.147517487406730652e-01
-2.076162397861480713e-01 -2.922873795032501221e-01 -2.441321313381195068e-01
-1.414897739887237549e-01 -2.387234121561050415e-01 -1.756829172372817993e-01
-9.758205711841583252e-02 -1.861559897661209106e-01 -1.348973363637924194e-01
-2.214686721563339233e-01 -3.058724105358123779e-01 -2.601316571235656738e-01
-3.956072032451629639e-01 -4.446772933006286621e-01 -3.849282562732696533e-01
2.254127264022827148e-01 2.217019349336624146e-01 2.071640491485595703e-01
-3.100896775722503662e-01 -4.049608409404754639e-01 -3.333800435066223145e-01
2.535898685455322266e-01 2.437307834625244141e-01 2.410651892423629761e-01
3.173311650753021240e-01 2.896251678466796875e-01 3.084537684917449951e-01
-1.769801042973995209e-02 -1.003018766641616821e-01 -5.215087532997131348e-02
-2.906668186187744141e-01 -3.890580236911773682e-01 -3.230235278606414795e-01
-1.976342648267745972e-01 -2.874906659126281738e-01 -2.375863194465637207e-01
4.285926222801208496e-01 4.016990065574645996e-01 4.094552397727966309e-01
4.141064882278442383e-01 3.875899612903594971e-01 3.961572051048278809e-01
-3.913367092609405518e-01 -4.473595917224884033e-01 -3.839214146137237549e-01
2.867568731307983398e-01 2.598817646503448486e-01 2.648243308067321777e-01
-1.973848044872283936e-01 -2.848550379276275635e-01 -2.320942878723144531e-01
-1.850244551897048950e-01 -2.715660929679870605e-01 -2.132152616977691650e-01
2.907970547676086426e-01 2.628277540206909180e-01 2.648153305053710938e-01
-2.823141217231750488e-01 -3.831124901771545410e-01 -3.242871463298797607e-01
-4.025746881961822510e-01 -4.467223584651947021e-01 -3.860658407211303711e-01
3.489876091480255127e-01 3.219757080078125000e-01 3.387679457664489746e-01
-2.724749147891998291e-01 -3.678427338600158691e-01 -3.097931742668151855e-01
4.627875685691833496e-01 4.429659247398376465e-01 4.422264695167541504e-01
2.371612787246704102e-01 2.290873527526855469e-01 2.169137448072433472e-01
4.064744412899017334e-01 3.818303048610687256e-01 3.941963613033294678e-01
7.888780906796455383e-03 -7.899605482816696167e-02 -2.414719015359878540e-02
3.340773284435272217e-02 -3.626571968197822571e-02 6.002137903124094009e-03
1.452969461679458618e-01 8.685284107923507690e-02 1.390218883752822876e-01
2.640933692455291748e-01 2.502624094486236572e-01 2.495470941066741943e-01
-9.435376524925231934e-02 -1.790157109498977661e-01 -1.288511902093887329e-01
3.996697962284088135e-01 3.707028925418853760e-01 3.832927942276000977e-01
1.562027931213378906e-01 1.026966869831085205e-01 1.463425904512405396e-01
3.182061314582824707e-01 2.921983003616333008e-01 3.102674782276153564e-01
3.049629032611846924e-01 2.740149796009063721e-01 2.840510010719299316e-01
-2.752712666988372803e-01 -3.687095940113067627e-01 -3.105490803718566895e-01
8.774829655885696411e-02 -3.290674416348338127e-03 4.141967371106147766e-02
-2.461213469505310059e-01 -3.312026858329772949e-01 -2.784051001071929932e-01
2.588408887386322021e-01 2.518205344676971436e-01 2.463315576314926147e-01
5.622692406177520752e-02 -2.270072326064109802e-02 1.900487765669822693e-02
1.085919365286827087e-01 4.083014652132987976e-02 7.443425059318542480e-02
2.899394929409027100e-01 2.618810534477233887e-01 2.636147141456604004e-01
-3.624044954776763916e-01 -4.379075169563293457e-01 -3.618810176849365234e-01
-4.540769755840301514e-02 -1.206230074167251587e-01 -8.210032433271408081e-02
-1.925386041402816772e-01 -2.731084227561950684e-01 -2.205072045326232910e-01
2.738867998123168945e-01 2.561841905117034912e-01 2.545185387134552002e-01
-2.377262264490127563e-01 -3.265911638736724854e-01 -2.721624672412872314e-01
-4.178070276975631714e-02 -1.183535903692245483e-01 -7.952553778886795044e-02
-4.380342066287994385e-01 -4.604534506797790527e-01 -4.233165085315704346e-01
4.307639300823211670e-01 3.994383513927459717e-01 4.124381244182586670e-01
4.841272905468940735e-02 -2.607312425971031189e-02 1.458058878779411316e-02
1.895176023244857788e-01 1.644531935453414917e-01 1.765985935926437378e-01
-4.466510415077209473e-01 -4.690114259719848633e-01 -4.296193122863769531e-01
1.096877455711364746e-01 3.985476866364479065e-02 7.529811561107635498e-02
1.369034796953201294e-01 7.567051053047180176e-02 1.171749606728553772e-01
-3.984836041927337646e-01 -4.472253322601318359e-01 -3.830414712429046631e-01
-1.068444028496742249e-01 -1.941995322704315186e-01 -1.454809308052062988e-01
1.953314691781997681e-01 1.691394448280334473e-01 1.829482614994049072e-01
2.400017976760864258e-01 2.296173572540283203e-01 2.230485528707504272e-01
-4.090881347656250000e-01 -4.475610852241516113e-01 -3.929834067821502686e-01
9.383559226989746094e-02 1.607774384319782257e-02 5.351051315665245056e-02
-8.335557579994201660e-02 -1.745759546756744385e-01 -1.227394044399261475e-01
9.624251723289489746e-02 1.194854360073804855e-02 5.035569146275520325e-02
1.085135620087385178e-02 -7.261615991592407227e-02 -2.281967736780643463e-02
1.894629746675491333e-01 1.564721316099166870e-01 1.722180694341659546e-01
-3.074465319514274597e-02 -1.047375425696372986e-01 -6.422670185565948486e-02
2.076810151338577271e-01 1.932738721370697021e-01 1.971791237592697144e-01
-9.511597454547882080e-02 -1.843359321355819702e-01 -1.312600672245025635e-01
4.631745815277099609e-01 4.380067586898803711e-01 4.424977600574493408e-01
-1.139651909470558167e-01 -2.052917629480361938e-01 -1.556875705718994141e-01
-2.990739047527313232e-01 -3.970928490161895752e-01 -3.305720388889312744e-01
-3.685940802097320557e-01 -4.383445382118225098e-01 -3.668328523635864258e-01
1.382795814424753189e-02 -6.435175240039825439e-02 -9.903421625494956970e-03
3.924320340156555176e-01 3.613682985305786133e-01 3.682301342487335205e-01
-7.714084535837173462e-02 -1.584327965974807739e-01 -1.125727742910385132e-01
4.459023773670196533e-01 4.223506450653076172e-01 4.317357242107391357e-01
1.689807772636413574e-01 1.177288293838500977e-01 1.537316441535949707e-01
3.387048542499542236e-01 3.125499784946441650e-01 3.306933343410491943e-01
-3.663135468959808350e-01 -4.371274113655090332e-01 -3.651393055915832520e-01
-2.058495581150054932e-02 -1.028182655572891235e-01 -5.442216247320175171e-02
1.455563120543956757e-02 -6.681996583938598633e-02 -1.293724216520786285e-02
1.965702921152114868e-01 1.733542829751968384e-01 1.864064335823059082e-01
-7.396797090768814087e-02 -1.536473929882049561e-01 -1.080904081463813782e-01
1.257615387439727783e-01 5.925735086202621460e-02 9.490744769573211670e-02
1.003047600388526917e-01 1.889827288687229156e-02 6.017381325364112854e-02
1.992508023977279663e-01 1.741655468940734863e-01 1.854245066642761230e-01
-3.138843225315213203e-03 -9.020798653364181519e-02 -4.229867085814476013e-02
-4.538855701684951782e-02 -1.201638877391815186e-01 -7.773719727993011475e-02
-7.716786861419677734e-02 -1.586987823247909546e-01 -1.110514402389526367e-01
2.029068768024444580e-01 1.857936829328536987e-01 1.887024343013763428e-01
4.011382162570953369e-01 3.652142584323883057e-01 3.782767355442047119e-01
1.015019565820693970e-01 2.118447422981262207e-02 6.138140335679054260e-02
-1.710518151521682739e-01 -2.610231637954711914e-01 -2.008240967988967896e-01
-5.590281262993812561e-02 -1.349688768386840820e-01 -9.122510254383087158e-02
-1.549198031425476074e-01 -2.467000633478164673e-01 -1.865313351154327393e-01
-1.488959640264511108e-01 -2.392691671848297119e-01 -1.820652633905410767e-01
9.660157561302185059e-02 2.062484994530677795e-02 6.033755093812942505e-02
-3.872395455837249756e-01 -4.474665224552154541e-01 -3.776311874389648438e-01
4.005116522312164307e-01 3.641707301139831543e-01 3.774356544017791748e-01
4.415375590324401855e-01 4.101837575435638428e-01 4.197858572006225586e-01
4.277737438678741455e-01 4.002848565578460693e-01 4.071446657180786133e-01
1.056838929653167725e-01 3.255779296159744263e-02 7.402950525283813477e-02
2.819547653198242188e-01 2.617843449115753174e-01 2.546859979629516602e-01
-8.168132603168487549e-02 -1.610004156827926636e-01 -1.176090091466903687e-01
-1.139087751507759094e-01 -1.990253627300262451e-01 -1.534394472837448120e-01
1.838808059692382812e-01 1.338751316070556641e-01 1.634749472141265869e-01
-3.573478460311889648e-01 -4.303841292858123779e-01 -3.554492294788360596e-01
3.572609126567840576e-01 3.314473628997802734e-01 3.440030217170715332e-01
1.031255722045898438e-01 3.268175944685935974e-02 7.378369569778442383e-02
9.239345043897628784e-02 8.421505801379680634e-03 5.056863650679588318e-02
-2.396153360605239868e-01 -3.274315595626831055e-01 -2.722285091876983643e-01
4.245367348194122314e-01 3.943500816822052002e-01 4.069768190383911133e-01
3.842653632164001465e-01 3.495822250843048096e-01 3.604779243469238281e-01
4.468618333339691162e-01 4.207150638103485107e-01 4.306471049785614014e-01
-2.945901751518249512e-01 -3.917399048805236816e-01 -3.285082578659057617e-01
1.976348906755447388e-01 1.721362024545669556e-01 1.846104860305786133e-01
1.859086453914642334e-01 1.439291983842849731e-01 1.638066917657852173e-01
-2.363697439432144165e-01 -3.267357647418975830e-01 -2.694993317127227783e-01
-2.459787875413894653e-01 -3.313063085079193115e-01 -2.785423994064331055e-01
4.383386075496673584e-01 4.114056229591369629e-01 4.175463914871215820e-01
-3.143672049045562744e-01 -4.061667025089263916e-01 -3.370055258274078369e-01
1.981517970561981201e-01 1.785263866186141968e-01 1.882007718086242676e-01
-4.148360192775726318e-01 -4.539692401885986328e-01 -3.993324339389801025e-01
1.842509210109710693e-01 1.544096171855926514e-01 1.709132194519042969e-01
4.253206253051757812e-01 3.943712711334228516e-01 4.054738879203796387e-01
-2.765120863914489746e-01 -3.788293302059173584e-01 -3.150880634784698486e-01
-2.691540122032165527e-01 -3.643595874309539795e-01 -3.036069273948669434e-01
1.340961605310440063e-01 6.442756205797195435e-02 9.708130359649658203e-02
-1.894717663526535034e-01 -2.728571593761444092e-01 -2.145250737667083740e-01
-2.364159971475601196e-01 -3.295397460460662842e-01 -2.696143388748168945e-01
-2.129951305687427521e-02 -1.004414856433868408e-01 -5.923879519104957581e-02
3.114182353019714355e-01 2.830618619918823242e-01 2.994004487991333008e-01
4.509752690792083740e-01 4.284796118736267090e-01 4.333203136920928955e-01
-4.949517846107482910e-01 -4.950930476188659668e-01 -4.843984246253967285e-01
-1.645464003086090088e-01 -2.561592459678649902e-01 -1.965402364730834961e-01
4.084038734436035156e-02 -3.251783922314643860e-02 7.353204768151044846e-03
-4.021248817443847656e-01 -4.458422958850860596e-01 -3.877031505107879639e-01
1.712512969970703125e-01 1.195348873734474182e-01 1.546676605939865112e-01
4.036529660224914551e-01 3.690832257270812988e-01 3.839118480682373047e-01
1.613973975181579590e-01 1.115782111883163452e-01 1.527532637119293213e-01
-1.655870079994201660e-01 -2.571842670440673828e-01 -1.938314288854598999e-01
-9.994754940271377563e-02 -1.851705014705657959e-01 -1.407875716686248779e-01
-2.402760647237300873e-02 -1.049308627843856812e-01 -6.212939321994781494e-02
1.512129008769989014e-01 9.803474694490432739e-02 1.437785923480987549e-01
2.081307321786880493e-01 2.002870440483093262e-01 1.993752270936965942e-01
2.219796925783157349e-01 2.140533775091171265e-01 2.081387937068939209e-01
2.257052809000015259e-01 2.210060507059097290e-01 2.067905813455581665e-01
-3.391400575637817383e-01 -4.231695532798767090e-01 -3.526107966899871826e-01
-7.804909348487854004e-02 -1.587531566619873047e-01 -1.096266508102416992e-01
-4.183596372604370117e-01 -4.514742791652679443e-01 -3.987157344818115234e-01
-8.920819498598575592e-03 -9.626733511686325073e-02 -4.939479008316993713e-02
-8.282204717397689819e-02 -1.618531942367553711e-01 -1.155499964952468872e-01
4.175147712230682373e-01 3.895785212516784668e-01 4.009137153625488281e-01
1.922052120789885521e-03 -9.002362191677093506e-02 -3.641311079263687134e-02
1.022419482469558716e-01 2.850065939128398895e-02 6.498541682958602905e-02
3.493179976940155029e-01 3.243042826652526855e-01 3.386647999286651611e-01
4.543484151363372803e-01 4.333371818065643311e-01 4.350555837154388428e-01
-2.898880541324615479e-01 -3.858587741851806641e-01 -3.252085447311401367e-01
-2.578323148190975189e-02 -1.039941459894180298e-01 -5.890401825308799744e-02
-4.687583148479461670e-01 -4.780330061912536621e-01 -4.510706663131713867e-01
-7.630015164613723755e-02 -1.523634642362594604e-01 -1.045531406998634338e-01
1.744102835655212402e-01 1.182449385523796082e-01 1.584949046373367310e-01
-2.726676762104034424e-01 -3.657749295234680176e-01 -3.017448484897613525e-01
3.782402575016021729e-01 3.443233966827392578e-01 3.571658730506896973e-01
-1.042470429092645645e-02 -1.017919406294822693e-01 -4.990910366177558899e-02
-2.701029777526855469e-01 -3.650004267692565918e-01 -3.056261539459228516e-01
-1.354988515377044678e-01 -2.222264558076858521e-01 -1.662893593311309814e-01
1.846838444471359253e-01 1.361666768789291382e-01 1.633801609277725220e-01
2.255209386348724365e-01 2.182076722383499146e-01 2.100581526756286621e-01
3.471699655055999756e-01 3.214103281497955322e-01 3.364274203777313232e-01
3.483993709087371826e-01 3.163565695285797119e-01 3.319527506828308105e-01
1.360249519348144531e-01 6.779573112726211548e-02 9.747426211833953857e-02
1.153505668044090271e-01 4.734741523861885071e-02 8.512335270643234253e-02
-1.362913399934768677e-01 -2.233891338109970093e-01 -1.670528501272201538e-01
2.371461838483810425e-01 2.235919833183288574e-01 2.159821689128875732e-01
3.993658125400543213e-01 3.698729276657104492e-01 3.848656713962554932e-01
2.865695953369140625e-01 2.602295279502868652e-01 2.590969800949096680e-01
-1.705356687307357788e-02 -1.022824794054031372e-01 -5.208863690495491028e-02
3.643642961978912354e-01 3.313684165477752686e-01 3.498542308807373047e-01
-2.788276374340057373e-01 -3.776997029781341553e-01 -3.137266039848327637e-01
-9.794459491968154907e-02 -1.860409528017044067e-01 -1.345847249031066895e-01
4.066050648689270020e-01 3.835754096508026123e-01 3.911079168319702148e-01
1.411474347114562988e-01 8.467614650726318359e-02 1.342557519674301147e-01
1.881444156169891357e-01 1.629643291234970093e-01 1.758438050746917725e-01
4.824766423553228378e-03 -8.833658695220947266e-02 -3.493398055434226990e-02
8.100626058876514435e-03 -7.867118716239929199e-02 -2.369689196348190308e-02
-4.782621264457702637e-01 -4.819664657115936279e-01 -4.650631546974182129e-01
-4.180525243282318115e-01 -4.527343809604644775e-01 -4.035027623176574707e-01
2.437463849782943726e-01 2.355086803436279297e-01 2.236584872007369995e-01
-4.735696315765380859e-01 -4.784780144691467285e-01 -4.565434455871582031e-01
6.568528711795806885e-02 -1.664208807051181793e-02 2.981360070407390594e-02
-3.483781814575195312e-01 -4.278294444084167480e-01 -3.564375638961791992e-01
7.959637045860290527e-02 -7.227259222418069839e-03 3.472266718745231628e-02
-4.620640575885772705e-01 -4.770693778991699219e-01 -4.433171749114990234e-01
-2.031728476285934448e-01 -2.872760295867919922e-01 -2.396932244300842285e-01
1.165654733777046204e-01 4.947049915790557861e-02 8.132887631654739380e-02
-7.567006349563598633e-02 -1.560728996992111206e-01 -1.089644804596900940e-01
1.676952540874481201e-01 1.167421787977218628e-01 1.532103568315505981e-01
-1.451122760772705078e-01 -2.380451709032058716e-01 -1.767935156822204590e-01
-4.438869357109069824e-01 -4.668204486370086670e-01 -4.296624958515167236e-01
-2.794727385044097900e-01 -3.782038092613220215e-01 -3.146123588085174561e-01
-1.627250909805297852e-01 -2.545548975467681885e-01 -1.928083598613739014e-01
-8.415235579013824463e-02 -1.679544001817703247e-01 -1.217215359210968018e-01
1.929702460765838623e-01 1.667435169219970703e-01 1.832795441150665283e-01
3.506122529506683350e-01 3.195186555385589600e-01 3.365817070007324219e-01
6.706779450178146362e-02 -1.766799390316009521e-02 3.345587849617004395e-02
3.157191574573516846e-01 2.882351875305175781e-01 3.116292953491210938e-01
3.197160959243774414e-01 2.996284067630767822e-01 3.180449903011322021e-01
-1.734148114919662476e-01 -2.632427513599395752e-01 -2.002334445714950562e-01
-2.185395173728466034e-02 -1.042806580662727356e-01 -5.747389420866966248e-02
2.882470488548278809e-01 2.599536776542663574e-01 2.659744024276733398e-01
-7.390920072793960571e-02 -1.497295945882797241e-01 -1.076885610818862915e-01
1.837374716997146606e-01 1.455338597297668457e-01 1.679845005273818970e-01
-9.094408899545669556e-02 -1.763557195663452148e-01 -1.257553845643997192e-01
4.188387840986251831e-02 -2.739949338138103485e-02 8.053827099502086639e-03
-2.811708450317382812e-01 -3.781761527061462402e-01 -3.184812963008880615e-01
-1.158756315708160400e-01 -2.060598731040954590e-01 -1.543195098638534546e-01
-2.370363175868988037e-01 -3.294900655746459961e-01 -2.695213258266448975e-01
1.491675823926925659e-01 9.054879099130630493e-02 1.386830508708953857e-01
3.137098252773284912e-01 2.868028879165649414e-01 3.017830252647399902e-01
-2.103082686662673950e-01 -2.971860468387603760e-01 -2.502092421054840088e-01
-4.203695058822631836e-01 -4.534043073654174805e-01 -4.050175845623016357e-01
-4.224399030208587646e-01 -4.534701108932495117e-01 -4.010138213634490967e-01
2.051600962877273560e-01 1.977439373731613159e-01 2.005759626626968384e-01
-4.347075521945953369e-01 -4.593615233898162842e-01 -4.212398529052734375e-01
3.545614778995513916e-01 3.240480720996856689e-01 3.388108611106872559e-01
4.313296079635620117e-01 4.004600942134857178e-01 4.132443964481353760e-01
-1.865369975566864014e-01 -2.701317667961120605e-01 -2.110410034656524658e-01
3.591629266738891602e-01 3.295800089836120605e-01 3.428228497505187988e-01
1.005251854658126831e-01 3.035291098058223724e-02 6.782773137092590332e-02
-2.725244462490081787e-01 -3.625945448875427246e-01 -3.035902976989746094e-01
-1.385441124439239502e-01 -2.351104915142059326e-01 -1.737987846136093140e-01
-2.920106947422027588e-01 -3.929318487644195557e-01 -3.273466229438781738e-01
1.361072957515716553e-01 7.671598345041275024e-02 1.142183765769004822e-01
-1.837008297443389893e-01 -2.645644843578338623e-01 -2.095835208892822266e-01
9.877178817987442017e-02 2.083148807287216187e-02 6.324172019958496094e-02
-1.909567415714263916e-01 -2.781389653682708740e-01 -2.223993986845016479e-01
1.388076841831207275e-01 7.386336475610733032e-02 1.148517951369285583e-01
3.065060079097747803e-01 2.776857614517211914e-01 2.935446202754974365e-01
-2.618784308433532715e-01 -3.539449572563171387e-01 -2.930445671081542969e-01
-2.477576732635498047e-01 -3.319023251533508301e-01 -2.777300775051116943e-01
2.947099208831787109e-01 2.658110260963439941e-01 2.704095840454101562e-01
-1.062870770692825317e-01 -1.899355351924896240e-01 -1.469814032316207886e-01
1.538974195718765259e-01 9.694349020719528198e-02 1.429674476385116577e-01
1.358234584331512451e-01 7.226317375898361206e-02 1.092111319303512573e-01
2.035993337631225586e-01 1.933344602584838867e-01 1.989038735628128052e-01
8.996779471635818481e-02 6.716306088492274284e-04 4.060557112097740173e-02
1.588021963834762573e-02 -6.451602280139923096e-02 -1.223205029964447021e-02
1.197025179862976074e-01 4.906234145164489746e-02 8.394390344619750977e-02
-2.518540024757385254e-01 -3.374858200550079346e-01 -2.852933108806610107e-01
-2.690665721893310547e-01 -3.610253036022186279e-01 -3.015601038932800293e-01
1.341843325644731522e-02 -6.132910773158073425e-02 -1.297712605446577072e-02
4.253409206867218018e-01 3.973079919815063477e-01 4.094443619251251221e-01
3.806636035442352295e-01 3.446440398693084717e-01 3.620410263538360596e-01
2.488713413476943970e-01 2.430505007505416870e-01 2.400641739368438721e-01
1.758136600255966187e-01 1.192113161087036133e-01 1.586031615734100342e-01
9.252466261386871338e-02 7.189795374870300293e-03 4.437906667590141296e-02
-1.079791188240051270e-01 -1.990211755037307739e-01 -1.516633629798889160e-01
-3.581015467643737793e-01 -4.308491647243499756e-01 -3.604400753974914551e-01
-8.285761624574661255e-02 -1.711145043373107910e-01 -1.187239661812782288e-01
1.961941868066787720e-01 1.772519946098327637e-01 1.839979439973831177e-01
3.053152859210968018e-01 2.794206440448760986e-01 2.915878891944885254e-01
-4.056315124034881592e-01 -4.474658668041229248e-01 -3.934224545955657959e-01
4.371730387210845947e-01 4.112142324447631836e-01 4.201498329639434814e-01
-1.900782287120819092e-01 -2.703653573989868164e-01 -2.166063785552978516e-01
1.604359745979309082e-01 1.037242338061332703e-01 1.489610970020294189e-01
1.385964155197143555e-01 7.460578531026840210e-02 1.172398030757904053e-01
-4.907288402318954468e-02 -1.237595453858375549e-01 -8.175022155046463013e-02
4.018374979496002197e-01 3.730264008045196533e-01 3.883199393749237061e-01
-2.455411404371261597e-01 -3.316119313240051270e-01 -2.741834223270416260e-01
3.202070295810699463e-01 2.958054244518280029e-01 3.130946159362792969e-01
-3.841223195195198059e-02 -1.137436032295227051e-01 -7.167886942625045776e-02
2.096354216337203979e-01 1.986810863018035889e-01 1.988754570484161377e-01
-4.952279329299926758e-01 -4.972125291824340820e-01 -4.870540201663970947e-01
-2.700690627098083496e-01 -3.665787875652313232e-01 -3.034230470657348633e-01
-4.111416339874267578e-01 -4.499544501304626465e-01 -3.933506309986114502e-01
3.780496716499328613e-01 3.462410271167755127e-01 3.579985797405242920e-01
2.108607590198516846e-01 2.028989493846893311e-01 2.008626013994216919e-01
-4.712668955326080322e-01 -4.794330298900604248e-01 -4.534961283206939697e-01
1.325589120388031006e-01 6.572741270065307617e-02 9.363465011119842529e-02
6.829333305358886719e-02 -1.727838441729545593e-02 3.401233628392219543e-02
2.230834364891052246e-01 2.185761332511901855e-01 2.061386406421661377e-01
-1.356520503759384155e-01 -2.223797440528869629e-01 -1.659850478172302246e-01
-1.802704781293869019e-01 -2.629887163639068604e-01 -2.080737799406051636e-01
2.536767423152923584e-01 2.483520060777664185e-01 2.410144209861755371e-01
-3.043206334114074707e-01 -4.042064249515533447e-01 -3.323593735694885254e-01
2.397124841809272766e-02 -5.118344351649284363e-02 -4.351628478616476059e-03
1.057791709899902344e-01 4.105109348893165588e-02 7.601657509803771973e-02
2.752023935317993164e-01 2.585129141807556152e-01 2.513597905635833740e-01
4.099727869033813477e-01 3.879803121089935303e-01 3.962186276912689209e-01
-1.512422114610671997e-01 -2.442610859870910645e-01 -1.881324648857116699e-01
1.871736645698547363e-01 1.610548794269561768e-01 1.781798750162124634e-01
1.546620428562164307e-01 9.893105924129486084e-02 1.440770328044891357e-01
1.011286824941635132e-01 3.067414648830890656e-02 7.088194787502288818e-02
-1.904844194650650024e-01 -2.744087576866149902e-01 -2.229605019092559814e-01
-1.459586024284362793e-01 -2.373177111148834229e-01 -1.793337911367416382e-01
-1.810519397258758545e-01 -2.634984552860260010e-01 -2.047119140625000000e-01
-2.678746581077575684e-01 -3.548877537250518799e-01 -2.937710583209991455e-01
-1.829406321048736572e-01 -2.648424208164215088e-01 -2.107346802949905396e-01
-3.131254017353057861e-01 -4.068795740604400635e-01 -3.417165279388427734e-01
-2.123491764068603516e-01 -3.029691576957702637e-01 -2.511238157749176025e-01
-1.655509024858474731e-01 -2.543726563453674316e-01 -1.970470994710922241e-01
-1.189260557293891907e-01 -2.050779461860656738e-01 -1.548676639795303345e-01
1.480410993099212646e-01 9.453358501195907593e-02 1.415035128593444824e-01
2.646393142640590668e-02 -4.003800824284553528e-02 -1.907013240270316601e-03
1.249924525618553162e-01 5.399560183286666870e-02 9.022935479879379272e-02
-3.273332118988037109e-01 -4.123038351535797119e-01 -3.430566191673278809e-01
3.535674139857292175e-02 -3.549093008041381836e-02 5.955342669039964676e-03
4.666518419981002808e-02 -2.790822833776473999e-02 8.723569102585315704e-03
5.703768134117126465e-02 -2.261083945631980896e-02 1.744028925895690918e-02
-1.636118143796920776e-01 -2.526327371597290039e-01 -1.916550397872924805e-01
9.744855761528015137e-02 2.197814360260963440e-02 6.255032867193222046e-02
-3.076721131801605225e-01 -4.038460850715637207e-01 -3.369169533252716064e-01
-1.765240356326103210e-02 -1.011351943016052246e-01 -5.740154534578323364e-02
-2.267772704362869263e-01 -3.118344843387603760e-01 -2.657336890697479248e-01
4.572952091693878174e-01 4.383018314838409424e-01 4.420090913772583008e-01
4.487040042877197266e-01 4.258098006248474121e-01 4.293675124645233154e-01
1.936766803264617920e-01 1.671643704175949097e-01 1.806662678718566895e-01
1.274457201361656189e-02 -6.649635732173919678e-02 -1.123802270740270615e-02
-1.382803916931152344e-01 -2.326725274324417114e-01 -1.684496551752090454e-01
-2.433914840221405029e-01 -3.329984843730926514e-01 -2.730933725833892822e-01
3.436858355998992920e-01 3.133058249950408936e-01 3.282698988914489746e-01
-1.688512116670608521e-01 -2.596271038055419922e-01 -1.951449811458587646e-01
