-3.380168974399566650e-01 3.967273980379104614e-02 -1.302258223295211792e-01
-4.099123179912567139e-01 -1.875003241002559662e-02 -9.644268453121185303e-02
-1.058723330497741699e-01 4.633203148841857910e-02 -1.508013308048248291e-01
-3.734054565429687500e-01 1.165405992651358247e-04 -9.315904229879379272e-02
-2.704186141490936279e-01 7.656137458980083466e-03 -1.193056181073188782e-01
-3.366599082946777344e-01 6.481084227561950684e-02 -1.407138705253601074e-01
-2.717921435832977295e-01 2.327916957437992096e-02 -1.189247518777847290e-01
-7.797705382108688354e-02 4.882302507758140564e-02 -1.516847312450408936e-01
-8.401993662118911743e-03 -1.193995252251625061e-01 -1.621592044830322266e-01
-3.039078712463378906e-01 -8.948713075369596481e-04 -1.213554516434669495e-01
-1.973599791526794434e-01 6.482551991939544678e-02 -1.065771803259849548e-01
-3.208104372024536133e-01 5.745363887399435043e-03 -1.209075152873992920e-01
-2.724860310554504395e-01 1.078157220035791397e-02 -1.195710822939872742e-01
-3.414561152458190918e-01 -8.305013924837112427e-02 -1.456605792045593262e-01
-4.678948819637298584e-01 -1.208848729729652405e-01 -1.082059144973754883e-01
1.712807826697826385e-02 -3.325354075059294701e-03 -1.191240698099136353e-01
-1.864023208618164062e-01 5.270934104919433594e-02 -1.051795929670333862e-01
-1.584795117378234863e-01 7.237958163022994995e-02 -1.066527962684631348e-01
-9.377544373273849487e-02 4.847462475299835205e-02 -1.527317911386489868e-01
-5.181658547371625900e-03 -1.939239725470542908e-02 -1.120562627911567688e-01
-8.962336182594299316e-02 5.134342610836029053e-02 -1.540087014436721802e-01
-1.105605810880661011e-01 2.451426535844802856e-02 -1.441634893417358398e-01
-4.607517123222351074e-01 -1.631151139736175537e-01 -9.993739426136016846e-02
-2.760068476200103760e-01 2.509845048189163208e-02 -1.200748533010482788e-01
-3.379883766174316406e-01 -9.642478823661804199e-02 -1.449411660432815552e-01
1.865836977958679199e-02 -2.039106190204620361e-02 -1.178767681121826172e-01
-3.303830325603485107e-01 -8.409403264522552490e-02 -1.440187394618988037e-01
-1.138697639107704163e-01 1.102057565003633499e-02 -1.410928368568420410e-01
1.390000060200691223e-02 -1.755915582180023193e-02 -1.170632839202880859e-01
-3.541833162307739258e-01 4.478412866592407227e-02 -1.303612440824508667e-01
-4.979102313518524170e-01 -1.444997191429138184e-01 -1.154454946517944336e-01
-3.083148002624511719e-01 5.657664686441421509e-02 -1.321275532245635986e-01
-3.658017814159393311e-01 8.865345153026282787e-04 -9.048182517290115356e-02
-3.655895292758941650e-01 -9.980786591768264771e-02 -1.459322571754455566e-01
-3.311636447906494141e-01 -8.541382849216461182e-02 -1.442326754331588745e-01
-1.919436305761337280e-01 4.232440888881683350e-02 -1.030370742082595825e-01
-8.903992176055908203e-02 1.600291766226291656e-02 -1.402277201414108276e-01
-3.149987757205963135e-01 3.086260706186294556e-02 -1.274971216917037964e-01
-1.259650439023971558e-01 -1.470972225069999695e-02 -1.381292045116424561e-01
-2.138263732194900513e-01 5.295021459460258484e-02 -1.001228019595146179e-01
-1.883482784032821655e-01 8.302807807922363281e-02 -1.129796802997589111e-01
-9.522497653961181641e-02 -1.927989907562732697e-02 -1.322508305311203003e-01
-3.558787405490875244e-01 -1.073679924011230469e-01 -1.432602405548095703e-01
-1.872121542692184448e-01 4.808626696467399597e-02 -1.042975708842277527e-01
-2.013070732355117798e-01 3.699772804975509644e-02 -1.010197550058364868e-01
2.224522829055786133e-02 1.521782251074910164e-03 -1.210990250110626221e-01
-3.650225102901458740e-01 -6.310180295258760452e-03 -9.046489745378494263e-02
-4.510307908058166504e-01 -1.407688707113265991e-01 -1.036593839526176453e-01
-1.233095973730087280e-01 4.410724714398384094e-02 -1.462940722703933716e-01
-4.101716578006744385e-01 -8.107468485832214355e-03 -1.009835451841354370e-01
-1.164153441786766052e-01 3.206598013639450073e-02 -1.452703773975372314e-01
-2.009381502866744995e-01 9.257414191961288452e-02 -1.137197911739349365e-01
-3.603006005287170410e-01 -7.674270123243331909e-02 -1.496546417474746704e-01
-1.814003586769104004e-01 6.105584278702735901e-02 -1.070313528180122375e-01
-2.778673171997070312e-01 3.848316147923469543e-02 -1.207389906048774719e-01
-3.890301287174224854e-01 -8.072595298290252686e-02 -1.559489518404006958e-01
-3.542734086513519287e-01 4.245585575699806213e-02 -1.291988790035247803e-01
-4.637395739555358887e-01 -1.332109719514846802e-01 -1.074548289179801941e-01
-1.731707304716110229e-01 7.867882400751113892e-02 -1.114599481225013733e-01
-3.220065236091613770e-01 5.188713595271110535e-02 -1.340075880289077759e-01
4.702135920524597168e-02 -3.964240476489067078e-02 -1.148514300584793091e-01
-9.715677052736282349e-02 8.220977033488452435e-04 -1.373083740472793579e-01
-2.918024957180023193e-01 1.962970383465290070e-02 -1.232533380389213562e-01
-9.450331330299377441e-02 6.539372354745864868e-02 -1.598570793867111206e-01
-9.491893649101257324e-02 4.149558395147323608e-02 -1.499371230602264404e-01
-1.206854060292243958e-01 -1.425488013774156570e-02 -1.379281580448150635e-01
-7.686942070722579956e-02 6.977574527263641357e-02 -1.615455448627471924e-01
-3.628796339035034180e-01 -6.418780237436294556e-02 -1.505120545625686646e-01
-1.153023466467857361e-01 6.123648956418037415e-02 -1.529553234577178955e-01
-6.956547964364290237e-03 -1.595689356327056885e-02 -1.115433648228645325e-01
-4.654713571071624756e-01 -1.307978630065917969e-01 -1.080231219530105591e-01
-1.258949637413024902e-01 4.923589900135993958e-02 -1.465084999799728394e-01
-3.557213842868804932e-01 -7.565467804670333862e-02 -1.486068069934844971e-01
-3.540114760398864746e-01 -8.859859406948089600e-02 -1.473315358161926270e-01
-1.297715902328491211e-01 4.789928346872329712e-02 -1.449064314365386963e-01
1.668187230825424194e-02 -2.714351192116737366e-02 -1.161984950304031372e-01
-3.768879771232604980e-01 -1.091941818594932556e-01 -1.422245353460311890e-01
-2.651012539863586426e-01 1.228832360357046127e-02 -1.177168339490890503e-01
-9.887904673814773560e-02 2.291080914437770844e-02 -1.437312364578247070e-01
-9.176040440797805786e-02 4.938123375177383423e-02 -1.531550288200378418e-01
-1.297939717769622803e-01 2.512625418603420258e-02 -1.413979530334472656e-01
-4.669960141181945801e-01 -1.234271600842475891e-01 -1.081966161727905273e-01
-3.399708867073059082e-01 1.296162046492099762e-02 -1.195958405733108521e-01
-3.127422630786895752e-01 4.230070114135742188e-02 -1.299976110458374023e-01
-2.935979962348937988e-01 4.118200391530990601e-02 -1.257185339927673340e-01
-3.822793066501617432e-01 -7.126247882843017578e-02 -1.564911603927612305e-01
-8.212604373693466187e-02 2.289591915905475616e-02 -1.412071883678436279e-01
-4.051687717437744141e-01 -1.878089387901127338e-03 -1.024748533964157104e-01
-8.471027761697769165e-02 8.120507746934890747e-02 -1.675846427679061890e-01
-4.099124073982238770e-01 -1.035987865179777145e-03 -1.035291999578475952e-01
-8.612521737813949585e-02 3.745034337043762207e-02 -1.477623283863067627e-01
-3.793950378894805908e-01 -6.622546166181564331e-02 -1.561153680086135864e-01
-4.037651717662811279e-01 -3.729669749736785889e-02 -8.809078484773635864e-02
-4.682839512825012207e-01 -1.248830631375312805e-01 -1.086969599127769470e-01
-3.007694184780120850e-01 3.816497698426246643e-02 -1.270618140697479248e-01
-1.436342597007751465e-01 1.287749316543340683e-02 -1.368521153926849365e-01
-3.052423298358917236e-01 5.233250185847282410e-02 -1.304555088281631470e-01
-3.185793058946728706e-03 -2.382084727287292480e-02 -1.124468520283699036e-01
-3.418222367763519287e-01 -7.342419028282165527e-02 -1.452402919530868530e-01
-9.668482095003128052e-02 5.365147069096565247e-02 -1.546652019023895264e-01
-4.785627126693725586e-01 -1.513890027999877930e-01 -1.083090677857398987e-01
-2.644059360027313232e-01 9.339306503534317017e-03 -1.177960038185119629e-01
-2.702049314975738525e-01 1.102413982152938843e-02 -1.190574839711189270e-01
-1.884917616844177246e-01 8.920068293809890747e-02 -1.150819137692451477e-01
4.870980978012084961e-02 -1.723182015120983124e-02 -1.255177706480026245e-01
-1.214303225278854370e-01 -1.956779137253761292e-02 -1.376427561044692993e-01
-1.739450991153717041e-01 1.076276227831840515e-01 -1.219372525811195374e-01
-2.920385003089904785e-01 3.091811574995517731e-02 -1.243368312716484070e-01
-1.891012936830520630e-01 1.122565343976020813e-01 -1.230896860361099243e-01
-1.323459446430206299e-01 7.823103107511997223e-03 -1.390070319175720215e-01
-1.222044229507446289e-01 4.507330805063247681e-02 -1.468130350112915039e-01
4.580843076109886169e-02 -1.544530317187309265e-02 -1.256816536188125610e-01
-9.641154110431671143e-02 6.914832442998886108e-02 -1.610406488180160522e-01
-3.146093785762786865e-01 5.946598201990127563e-02 -1.345364898443222046e-01
-1.752903759479522705e-01 1.062209382653236389e-01 -1.216414198279380798e-01
-2.903223037719726562e-01 -1.009097881615161896e-02 -1.212805584073066711e-01
-3.692035973072052002e-01 -1.008468493819236755e-02 -9.163393825292587280e-02
-2.758500576019287109e-01 -1.631777151487767696e-03 -1.206742003560066223e-01
-2.114150673151016235e-01 5.336648225784301758e-02 -1.009411886334419250e-01
-3.957126140594482422e-01 -5.888597294688224792e-02 -1.624649465084075928e-01
-4.795814454555511475e-01 -1.393236666917800903e-01 -1.116752922534942627e-01
-2.882912158966064453e-01 -3.361219074577093124e-03 -1.215438172221183777e-01
5.557830631732940674e-02 1.632227562367916107e-03 -1.326248347759246826e-01
-7.926628738641738892e-02 4.143848642706871033e-02 -1.484340280294418335e-01
-8.788390457630157471e-02 5.306628718972206116e-02 -1.547539085149765015e-01
-1.181465536355972290e-01 -1.037493813782930374e-02 -1.380995810031890869e-01
-3.667070865631103516e-01 -7.023385167121887207e-02 -1.517116576433181763e-01
-3.777137696743011475e-01 -1.850904151797294617e-02 -9.273626655340194702e-02
-3.896231651306152344e-01 -9.347496181726455688e-02 -1.505713909864425659e-01
-7.816712558269500732e-02 2.416457235813140869e-02 -1.407242119312286377e-01
-1.174039766192436218e-01 4.475933313369750977e-02 -1.480280160903930664e-01
-1.006190255284309387e-01 -2.096918597817420959e-02 -1.335558593273162842e-01
-3.910911679267883301e-01 -6.020152941346168518e-02 -1.608005613088607788e-01
-1.978889405727386475e-01 9.197351336479187012e-02 -1.143387332558631897e-01
3.119711391627788544e-02 -1.341935340315103531e-02 -1.225587204098701477e-01
-1.142185926437377930e-02 -1.613314263522624969e-02 -1.103537231683731079e-01
-3.187278807163238525e-01 8.090733736753463745e-02 -1.405159533023834229e-01
-4.015983641147613525e-01 -2.479873038828372955e-02 -9.371796250343322754e-02
-2.798828296363353729e-03 -2.023427747189998627e-02 -1.126356050372123718e-01
1.252913381904363632e-02 -8.740028366446495056e-03 -1.173570677638053894e-01
-6.228299345821142197e-03 -1.294193137437105179e-02 -1.116378977894783020e-01
-1.068402975797653198e-01 4.359421879053115845e-02 -1.497856825590133667e-01
-1.675919741392135620e-01 8.583233505487442017e-02 -1.130102425813674927e-01
-3.570933640003204346e-01 -1.834339345805346966e-03 -8.767758309841156006e-02
-3.624645471572875977e-01 -6.507672369480133057e-03 -8.968666195869445801e-02
-4.956275224685668945e-01 -1.365560442209243774e-01 -1.171304956078529358e-01
-1.839138567447662354e-01 7.189324498176574707e-02 -1.098063141107559204e-01
-1.016380190849304199e-01 7.058238983154296875e-02 -1.602323353290557861e-01
-2.706300318241119385e-01 1.117353979498147964e-02 -1.191449090838432312e-01
-1.973039507865905762e-01 4.314569756388664246e-02 -1.025033965706825256e-01
-4.638647437095642090e-01 -1.232656314969062805e-01 -1.072622835636138916e-01
-2.053601741790771484e-01 -1.056945919990539551e-01 -1.785176992416381836e-01
-8.871484547853469849e-02 3.907119110226631165e-02 -1.487102508544921875e-01
-1.584611982107162476e-01 8.287592977285385132e-02 -1.097666025161743164e-01
-1.503703743219375610e-01 -8.901875116862356663e-04 -1.351652443408966064e-01
-4.833056591451168060e-03 -2.136009559035301208e-02 -1.121308431029319763e-01
-1.724512130022048950e-02 -1.138838678598403931e-01 -1.586853861808776855e-01
-3.315352499485015869e-01 -8.111637085676193237e-02 -1.439043432474136353e-01
-1.613796651363372803e-01 7.896671444177627563e-02 -1.093658953905105591e-01
-1.077900826930999756e-01 7.770685851573944092e-02 -1.599743366241455078e-01
-3.913536369800567627e-01 -6.891710683703422546e-03 -9.800326824188232422e-02
-8.091802150011062622e-02 7.165870070457458496e-02 -1.631499379873275757e-01
-3.299012482166290283e-01 5.951011553406715393e-02 -1.377783864736557007e-01
-1.596708595752716064e-01 6.013163551688194275e-02 -1.038645729422569275e-01
-1.778493076562881470e-01 5.177194252610206604e-02 -1.049490645527839661e-01
-3.835802376270294189e-01 -1.351645123213529587e-02 -9.483817219734191895e-02
-5.157204810529947281e-03 -1.173204705119132996e-01 -1.632266342639923096e-01
4.930897057056427002e-02 -2.234604582190513611e-02 -1.234042868018150330e-01
-1.777376979589462280e-01 5.603825673460960388e-02 -1.058015748858451843e-01
-1.151321083307266235e-01 4.051913321018218994e-02 -1.474961191415786743e-01
-3.303709030151367188e-01 7.446260750293731689e-02 -1.430881321430206299e-01
-2.799394428730010986e-01 4.263646155595779419e-02 -1.215381324291229248e-01
-2.099411785602569580e-01 5.869928374886512756e-02 -1.023203060030937195e-01
-1.272719949483871460e-01 3.025762550532817841e-02 -1.427472829818725586e-01
-1.093055456876754761e-01 9.471108205616474152e-03 -1.407454013824462891e-01
4.424935951828956604e-02 -1.168617513030767441e-03 -1.289007961750030518e-01
-8.379403501749038696e-02 5.581588670611381531e-02 -1.558395475149154663e-01
-1.753888577222824097e-01 1.041903048753738403e-01 -1.209079101681709290e-01
-9.566891193389892578e-02 7.493591308593750000e-02 -1.633900105953216553e-01
-2.155329585075378418e-01 -1.073209717869758606e-01 -1.774172186851501465e-01
-7.542242109775543213e-02 6.717523932456970215e-02 -1.600418835878372192e-01
-3.698697686195373535e-01 -9.512896835803985596e-02 -1.477745622396469116e-01
-2.122197151184082031e-01 3.934898227453231812e-02 -9.870288521051406860e-02
-1.667926907539367676e-01 5.266394093632698059e-02 -1.038269400596618652e-01
-1.034537553787231445e-01 5.156109854578971863e-02 -1.529642045497894287e-01
-1.499293297529220581e-01 5.589534528553485870e-03 -1.350853890180587769e-01
-1.919846385717391968e-01 9.450917690992355347e-02 -1.164696961641311646e-01
-3.190221190452575684e-01 1.886843517422676086e-02 -1.244933828711509705e-01
-5.000000000000000000e-01 -1.360423415899276733e-01 -1.184221729636192322e-01
-3.420478105545043945e-01 8.431070297956466675e-02 -1.489671766757965088e-01
2.712837047874927521e-02 -4.712319374084472656e-02 -1.112585440278053284e-01
-4.590832889080047607e-01 -3.029220402240753174e-01 -1.224668323993682861e-01
-1.932691037654876709e-01 5.995861068367958069e-02 -1.060834527015686035e-01
-1.818496137857437134e-01 3.525203838944435120e-02 -1.024593561887741089e-01
1.079207658767700195e-02 -3.051854856312274933e-02 -1.144980490207672119e-01
-4.150801301002502441e-01 -1.651073922403156757e-03 -1.034915074706077576e-01
-4.711440205574035645e-01 -3.047747015953063965e-01 -1.264863461256027222e-01
-9.284789860248565674e-02 1.155523676425218582e-02 -1.395260393619537354e-01
-3.331680893898010254e-01 -7.540784776210784912e-02 -1.435621827840805054e-01
-9.647326916456222534e-02 2.507670409977436066e-02 -1.442326605319976807e-01
-8.496829122304916382e-02 6.937261670827865601e-02 -1.623908132314682007e-01
-4.053061306476593018e-01 7.176707033067941666e-03 -1.040271073579788208e-01
-4.069112837314605713e-01 -2.689152210950851440e-02 -9.278424829244613647e-02
-3.422213494777679443e-01 8.463212847709655762e-02 -1.490951627492904663e-01
-4.682269692420959473e-01 -1.323211789131164551e-01 -1.088033616542816162e-01
-3.391478061676025391e-01 4.460726678371429443e-02 -1.321999877691268921e-01
-1.597696989774703979e-01 8.942598849534988403e-02 -1.122604757547378540e-01
-7.600994408130645752e-02 3.613274917006492615e-02 -1.453093886375427246e-01
-1.058851629495620728e-01 4.232345148921012878e-02 -1.495144218206405640e-01
-2.719900906085968018e-01 1.017333939671516418e-02 -1.194959655404090881e-01
-8.417333662509918213e-02 8.134077489376068115e-02 -1.676021218299865723e-01
-3.647728264331817627e-01 -8.426177501678466797e-02 -1.497311592102050781e-01
-4.680404961109161377e-01 -2.902725636959075928e-01 -1.240364834666252136e-01
-3.901331424713134766e-01 -1.214641984552145004e-02 -9.654876589775085449e-02
-3.643133342266082764e-01 -1.283853314816951752e-02 -9.024232625961303711e-02
-3.231838941574096680e-01 2.597346436232328415e-03 -1.196953132748603821e-01
-2.745878398418426514e-01 -8.135430514812469482e-03 -1.208577603101730347e-01
-1.065848767757415771e-01 2.929373411461710930e-03 -1.391890197992324829e-01
9.881025552749633789e-02 -2.568825185298919678e-01 -1.230849251151084900e-01
-1.032461524009704590e-01 -4.664743901230394840e-04 -1.380608975887298584e-01
-3.990319967269897461e-01 -7.400246709585189819e-02 -1.610445827245712280e-01
-3.878419399261474609e-01 6.952546536922454834e-03 -9.830173105001449585e-02
-1.709623336791992188e-01 1.130727380514144897e-01 -1.228025853633880615e-01
-2.093997001647949219e-01 8.697442710399627686e-02 -1.093048676848411560e-01
-1.301277130842208862e-01 7.083162199705839157e-03 -1.392697095870971680e-01
-1.791439503431320190e-01 5.988127365708351135e-02 -1.067099422216415405e-01
-3.439668416976928711e-01 8.511702716350555420e-02 -1.495951563119888306e-01
-3.635683059692382812e-01 -8.986002206802368164e-02 -1.484513282775878906e-01
3.335364162921905518e-02 -1.121574081480503082e-02 -1.236474215984344482e-01
-3.169647455215454102e-01 -3.226950997486710548e-03 -1.193459704518318176e-01
-1.432385295629501343e-01 1.331999152898788452e-02 -1.369715034961700439e-01
-3.952157497406005859e-01 -9.113581478595733643e-02 -1.524156481027603149e-01
-3.561900854110717773e-01 -9.262759983539581299e-02 -1.469777971506118774e-01
-2.137408405542373657e-01 -9.027553349733352661e-02 -1.855270713567733765e-01
-1.150463148951530457e-01 4.836444556713104248e-02 -1.495311856269836426e-01
-2.903251647949218750e-01 3.094550408422946930e-02 -1.239602640271186829e-01
-4.740183353424072266e-01 -1.404703706502914429e-01 -1.097588688135147095e-01
-1.868903636932373047e-01 4.658818989992141724e-02 -1.040612682700157166e-01
-3.239549398422241211e-01 6.874038279056549072e-02 -1.396121531724929810e-01
-1.958002001047134399e-01 9.954793751239776611e-02 -1.173927336931228638e-01
-1.213412582874298096e-01 1.135861687362194061e-02 -1.407558023929595947e-01
-1.582014113664627075e-01 9.083165973424911499e-02 -1.122211068868637085e-01
-3.380835950374603271e-01 -9.278652817010879517e-02 -1.451319754123687744e-01
-4.545371532440185547e-01 -2.897960841655731201e-01 -1.207303628325462341e-01
-3.668273687362670898e-01 -7.564469426870346069e-02 -1.513601839542388916e-01
-2.743788659572601318e-01 2.643623575568199158e-02 -1.196011751890182495e-01
-3.378317952156066895e-01 -8.515462279319763184e-02 -1.451395601034164429e-01
7.528144400566816330e-03 -2.947246842086315155e-02 -1.140970215201377869e-01
-3.152752816677093506e-01 5.742921680212020874e-02 -1.342078745365142822e-01
-3.294823467731475830e-01 7.013187557458877563e-02 -1.414709687232971191e-01
-4.001979231834411621e-01 -3.551327809691429138e-02 -8.913850039243698120e-02
-2.002970725297927856e-01 9.329525381326675415e-02 -1.141313761472702026e-01
-3.281163573265075684e-01 5.868886411190032959e-02 -1.372100263833999634e-01
-4.535782635211944580e-01 -1.251892596483230591e-01 -1.046159416437149048e-01
-4.536129534244537354e-01 -2.739118337631225586e-01 -1.177894920110702515e-01
-1.054167225956916809e-01 -1.540741883218288422e-02 -1.356682032346725464e-01
-4.605343937873840332e-01 -2.800117731094360352e-01 -1.204260960221290588e-01
-4.740562736988067627e-01 -1.437573283910751343e-01 -1.091482937335968018e-01
-4.713871479034423828e-01 -1.304581165313720703e-01 -1.098153814673423767e-01
4.914746433496475220e-02 -5.423235706984996796e-03 -1.296033263206481934e-01
-8.640020340681076050e-02 3.977338597178459167e-02 -1.487709879875183105e-01
-3.781044185161590576e-01 -8.693686872720718384e-02 -1.515225172042846680e-01
-3.121885359287261963e-01 5.881059914827346802e-02 -1.337097883224487305e-01
-4.840888977050781250e-01 -1.264800131320953369e-01 -1.137143746018409729e-01
-2.671774625778198242e-01 1.582850702106952667e-02 -1.180081516504287720e-01
-3.087368905544281006e-01 6.533470004796981812e-02 -1.339476853609085083e-01
-3.414522707462310791e-01 8.207010477781295776e-02 -1.481594592332839966e-01
-1.887348294258117676e-01 7.740683853626251221e-02 -1.111469790339469910e-01
-3.400789499282836914e-01 4.772186651825904846e-02 -1.334853172302246094e-01
-3.553298115730285645e-01 6.470371782779693604e-02 -1.399877816438674927e-01
-2.132233679294586182e-01 -9.266076982021331787e-02 -1.843613088130950928e-01
3.646735846996307373e-02 -1.598149724304676056e-02 -1.233582571148872375e-01
-4.062497019767761230e-01 -3.312578424811363220e-02 -8.988267183303833008e-02
-4.726791381835937500e-01 -1.199058443307876587e-01 -1.095099821686744690e-01
-1.680686473846435547e-01 7.718517631292343140e-02 -1.102705225348472595e-01
-2.824173271656036377e-01 5.864633712917566299e-03 -1.213239803910255432e-01
-8.688363432884216309e-02 4.535325989127159119e-02 -1.512331068515777588e-01
-4.510094523429870605e-01 -1.255088299512863159e-01 -1.040066778659820557e-01
-3.352898061275482178e-01 8.352116495370864868e-02 -1.469494998455047607e-01
-8.992370963096618652e-02 2.795104682445526123e-02 -1.445381790399551392e-01
-1.262517422437667847e-01 -3.933247178792953491e-03 -1.387442350387573242e-01
-2.038743793964385986e-01 -9.995006024837493896e-02 -1.802014559507369995e-01
-4.021670520305633545e-01 -6.147354841232299805e-03 -1.006473526358604431e-01
5.893377237953245640e-04 -1.326370984315872192e-01 -1.630623936653137207e-01
-1.290634423494338989e-01 4.012990370392799377e-02 -1.438459455966949463e-01
-2.056326717138290405e-01 4.849801212549209595e-02 -1.017018109560012817e-01
-3.423833847045898438e-01 1.308419927954673767e-02 -1.190470084547996521e-01
-4.137263298034667969e-01 -9.262452833354473114e-03 -1.005161032080650330e-01
-1.910317391157150269e-01 6.430482119321823120e-02 -1.073343306779861450e-01
-8.688711374998092651e-02 1.232896652072668076e-02 -1.385259479284286499e-01
-3.172549605369567871e-01 5.031196027994155884e-02 -1.327680498361587524e-01
-4.624527096748352051e-01 -1.453163176774978638e-01 -1.056409925222396851e-01
-3.561131954193115234e-01 -6.933485716581344604e-02 -1.486558467149734497e-01
4.233194887638092041e-02 2.716580173000693321e-03 -1.285447180271148682e-01
-1.657742708921432495e-01 5.547660961747169495e-02 -1.042186841368675232e-01
-1.425595879554748535e-01 -1.400805450975894928e-02 -1.371835768222808838e-01
-1.219087615609169006e-01 -1.566475816071033478e-02 -1.379138976335525513e-01
-1.454865634441375732e-01 5.599190015345811844e-03 -1.362515240907669067e-01
-1.976777315139770508e-01 9.554745256900787354e-02 -1.155775934457778931e-01
-1.278037428855895996e-01 5.669964477419853210e-02 -1.472381502389907837e-01
-4.893854558467864990e-01 -1.417421847581863403e-01 -1.142387017607688904e-01
-1.717395037412643433e-01 1.081434264779090881e-01 -1.216640174388885498e-01
-4.622111618518829346e-01 -1.500314772129058838e-01 -1.045105308294296265e-01
-1.228618100285530090e-01 -1.532835699617862701e-02 -1.379952281713485718e-01
-3.424067795276641846e-01 3.770242631435394287e-02 -1.289792656898498535e-01
-1.982370316982269287e-01 -1.037168055772781372e-01 -1.774314045906066895e-01
-4.080012440681457520e-01 3.400452900677919388e-03 -1.043577641248703003e-01
-3.209509253501892090e-01 6.475678831338882446e-02 -1.376451253890991211e-01
-3.711518049240112305e-01 -1.816051080822944641e-02 -9.148270636796951294e-02
-1.833670884370803833e-01 6.177637726068496704e-02 -1.071935370564460754e-01
-3.975796997547149658e-01 -8.330751210451126099e-02 -1.567371785640716553e-01
-2.924081385135650635e-01 2.370123751461505890e-02 -1.237200126051902771e-01
-4.420207738876342773e-01 -1.212207823991775513e-01 -1.015938892960548401e-01
-3.380330502986907959e-01 3.013603948056697845e-02 -1.264384388923645020e-01
-1.756159067153930664e-01 7.881616055965423584e-02 -1.117282286286354065e-01
-1.608865559101104736e-01 9.683940559625625610e-02 -1.150151640176773071e-01
-2.026257663965225220e-01 5.057080835103988647e-02 -1.027136966586112976e-01
-3.699326515197753906e-01 -9.198834002017974854e-02 -1.487383544445037842e-01
2.203214168548583984e-02 -2.839940413832664490e-02 -1.169039979577064514e-01
-4.582621753215789795e-01 -2.686793208122253418e-01 -1.170368120074272156e-01
-1.633175909519195557e-01 6.639156490564346313e-02 -1.062631756067276001e-01
-1.851682960987091064e-01 8.123385906219482422e-02 -1.126236096024513245e-01
-1.703846752643585205e-01 9.734861552715301514e-02 -1.176233291625976562e-01
-8.801635354757308960e-02 3.686378523707389832e-02 -1.477445960044860840e-01
-3.244962394237518311e-01 -1.482187118381261826e-02 -1.149150878190994263e-01
-3.870703577995300293e-01 -9.578245133161544800e-02 -1.491771489381790161e-01
-4.011262655258178711e-01 3.776744008064270020e-03 -1.025661826133728027e-01
-1.478078920627012849e-04 -2.610757946968078613e-02 -1.129724830389022827e-01
-4.707773625850677490e-01 -1.525828391313552856e-01 -1.058887317776679993e-01
-1.450979560613632202e-01 -2.404635306447744370e-03 -1.364170312881469727e-01
-9.635750204324722290e-02 4.352066293358802795e-02 -1.506835669279098511e-01
-1.875507086515426636e-01 7.505334168672561646e-02 -1.105331853032112122e-01
-3.292023539543151855e-01 7.832277566194534302e-02 -1.438338011503219604e-01
-7.961713522672653198e-02 1.506106555461883545e-02 -1.375974863767623901e-01
-3.602710664272308350e-01 -1.110460609197616577e-01 -1.418906599283218384e-01
-3.476073145866394043e-01 3.545436263084411621e-02 -1.271992325782775879e-01
-1.425023674964904785e-01 -7.277778931893408298e-04 -1.369117200374603271e-01
-2.077121585607528687e-01 -1.051275730133056641e-01 -1.788859516382217407e-01
-1.207241192460060120e-01 -1.834516413509845734e-02 -1.376542299985885620e-01
-1.721153259277343750e-01 1.119105368852615356e-01 -1.228593513369560242e-01
-9.754470735788345337e-02 6.683084368705749512e-02 -1.598891317844390869e-01
-1.573892086744308472e-01 4.162696748971939087e-02 -9.968958050012588501e-02
-1.646286249160766602e-01 4.700709879398345947e-02 -1.023476570844650269e-01
-8.768747746944427490e-02 1.063470263034105301e-03 -1.351183354854583740e-01
1.395102869719266891e-02 -4.609157145023345947e-02 -1.112498268485069275e-01
-3.330520093441009521e-01 -5.637689493596553802e-03 -1.150167286396026611e-01
2.565609477460384369e-02 -3.932897001504898071e-02 -1.141085699200630188e-01
-3.225187659263610840e-01 5.988640710711479187e-02 -1.365774273872375488e-01
-4.670093357563018799e-01 -2.840232551097869873e-01 -1.224118843674659729e-01
1.308724656701087952e-02 -3.290401026606559753e-02 -1.144220754504203796e-01
-4.091322422027587891e-01 -3.576687769964337349e-03 -1.025843173265457153e-01
-3.871301412582397461e-01 -8.282949030399322510e-02 -1.547448635101318359e-01
-2.991112470626831055e-01 1.791268214583396912e-02 -1.239242330193519592e-01
-1.323690116405487061e-01 3.586884215474128723e-02 -1.421836167573928833e-01
-1.084405928850173950e-01 1.290447264909744263e-02 -1.414857655763626099e-01
-2.024499177932739258e-01 5.600525811314582825e-02 -1.037191599607467651e-01
-2.972221672534942627e-01 -1.770248822867870331e-02 -1.202429309487342834e-01
-3.349531590938568115e-01 6.655183434486389160e-02 -1.412041485309600830e-01
-3.904365301132202148e-01 -1.011383086442947388e-01 -1.465744823217391968e-01
1.806559599936008453e-02 -1.456149574369192123e-02 -1.185713112354278564e-01
-4.496683180332183838e-01 -1.227451115846633911e-01 -1.034564599394798279e-01
-3.945217430591583252e-01 5.962267983704805374e-03 -1.006152033805847168e-01
3.977989777922630310e-02 -1.595481298863887787e-02 -1.241813972592353821e-01
-3.977365791797637939e-01 -6.469047069549560547e-02 -1.629605144262313843e-01
1.036514644511044025e-03 -2.735859947279095650e-03 -1.134274378418922424e-01
-7.805037498474121094e-02 7.424908131361007690e-02 -1.636779010295867920e-01
-3.367263078689575195e-01 4.581562057137489319e-02 -1.327908188104629517e-01
2.776190522126853466e-04 -1.417372226715087891e-01 -1.585393995046615601e-01
-4.851583838462829590e-01 -1.288164407014846802e-01 -1.141819208860397339e-01
-1.734216362237930298e-01 5.087855085730552673e-02 -1.044225767254829407e-01
-1.004346739500761032e-02 -2.540989965200424194e-02 -1.109275817871093750e-01
-3.060397505760192871e-01 1.444275118410587311e-02 -1.237403973937034607e-01
-3.710170090198516846e-01 -7.793581485748291016e-02 -1.521333903074264526e-01
-4.729612469673156738e-01 -1.227361857891082764e-01 -1.099408119916915894e-01
-4.677525460720062256e-01 -2.879658937454223633e-01 -1.234758496284484863e-01
-3.331216275691986084e-01 1.788439042866230011e-02 -1.227097958326339722e-01
-3.027874231338500977e-01 6.981227546930313110e-02 -1.323754340410232544e-01
-7.240939885377883911e-02 5.376392602920532227e-02 -1.529028266668319702e-01
-3.758547306060791016e-01 -9.886377304792404175e-02 -1.469055414199829102e-01
-4.519899487495422363e-01 -3.060634732246398926e-01 -1.193696483969688416e-01
-1.146146878600120544e-01 1.683942414820194244e-02 -1.422251462936401367e-01
1.312669366598129272e-02 3.578024683520197868e-03 -1.175439506769180298e-01
-2.032109349966049194e-01 6.095019355416297913e-02 -1.045304611325263977e-01
-2.111595869064331055e-01 5.159288272261619568e-02 -1.007254347205162048e-01
-1.630127876996994019e-01 9.224915504455566406e-02 -1.141351535916328430e-01
-3.978474140167236328e-01 -7.600425928831100464e-02 -1.599747389554977417e-01
-1.297254115343093872e-01 2.326122112572193146e-02 -1.411569565534591675e-01
-9.928843379020690918e-02 9.616702795028686523e-03 -1.399764120578765869e-01
-3.926262855529785156e-01 -7.331585139036178589e-02 -1.593617200851440430e-01
-4.068046808242797852e-01 -4.280840046703815460e-03 -1.020389199256896973e-01
-8.961566537618637085e-02 1.595692709088325500e-02 -1.403221338987350464e-01
-4.006010890007019043e-01 -9.371887147426605225e-02 -1.514249742031097412e-01
-4.601257145404815674e-01 -1.262371242046356201e-01 -1.064064055681228638e-01
-3.724240660667419434e-01 -1.043721754103899002e-02 -9.248890727758407593e-02
-4.765790104866027832e-01 -1.393395662307739258e-01 -1.107310727238655090e-01
-1.957411020994186401e-01 7.827386260032653809e-02 -1.104386672377586365e-01
-4.392368793487548828e-01 -1.107846945524215698e-01 -9.925606846809387207e-02
-2.930834889411926270e-01 2.802467532455921173e-02 -1.242750883102416992e-01
-3.739261031150817871e-01 -8.028236776590347290e-02 -1.524081379175186157e-01
-3.952133655548095703e-01 2.575767925009131432e-03 -1.006209775805473328e-01
-2.865110635757446289e-01 1.399969216436147690e-02 -1.220908463001251221e-01
-3.152520358562469482e-01 2.799900481477379799e-03 -1.209300830960273743e-01
-1.883952617645263672e-01 1.114520281553268433e-01 -1.230235919356346130e-01
-4.024828672409057617e-01 -9.228822588920593262e-02 -1.523971408605575562e-01
-3.322932124137878418e-01 3.947189077734947205e-02 -1.304228305816650391e-01
-1.470977663993835449e-01 -1.461826357990503311e-02 -1.365265548229217529e-01
-3.488578498363494873e-01 -8.455234766006469727e-02 -1.468892842531204224e-01
4.157740250229835510e-02 -3.424970060586929321e-02 -1.173432543873786926e-01
-1.230712234973907471e-01 -1.928790844976902008e-02 -1.377867311239242554e-01
-4.005156457424163818e-01 -8.664886653423309326e-02 -1.554827690124511719e-01
-3.581199645996093750e-01 -8.796194940805435181e-02 -1.480163484811782837e-01
-3.635700643062591553e-01 -1.726062968373298645e-03 -8.984945714473724365e-02
-1.060712039470672607e-01 5.411712452769279480e-02 -1.533661782741546631e-01
-1.491585075855255127e-01 1.764577068388462067e-02 -1.353213340044021606e-01
-1.846750527620315552e-01 4.066022112965583801e-02 -1.031932011246681213e-01
-9.511175006628036499e-02 3.785416716709733009e-03 -1.376879960298538208e-01
-4.740943312644958496e-01 -1.411121934652328491e-01 -1.096781641244888306e-01
-3.392874598503112793e-01 7.563361525535583496e-02 -1.454454511404037476e-01
-3.887723386287689209e-01 2.881363267078995705e-03 -9.853389114141464233e-02
-1.825180500745773315e-01 3.484201803803443909e-02 -1.024156957864761353e-01
-1.722832918167114258e-01 1.109636500477790833e-01 -1.226448565721511841e-01
-4.803713560104370117e-01 -1.501649022102355957e-01 -1.092007830739021301e-01
-3.968549370765686035e-01 -8.809114992618560791e-02 -1.542264223098754883e-01
2.052071318030357361e-02 -2.125756442546844482e-02 -1.181639432907104492e-01
-9.561818093061447144e-02 6.782022118568420410e-02 -1.606696248054504395e-01
-3.287433981895446777e-01 2.942539006471633911e-02 -1.270542740821838379e-01
-1.153097301721572876e-01 -2.172240242362022400e-02 -1.367324292659759521e-01
-2.166462987661361694e-01 5.419169366359710693e-02 -9.938702732324600220e-02
-4.096122980117797852e-01 8.468434214591979980e-03 -1.050886288285255432e-01
9.792947024106979370e-02 -2.647196054458618164e-01 -1.238655596971511841e-01
-3.686065971851348877e-01 -5.118009168654680252e-03 -9.157380461692810059e-02
-1.199355050921440125e-01 2.577691921032965183e-04 -1.393116116523742676e-01
-3.699160814285278320e-01 -7.860963046550750732e-02 -1.517583280801773071e-01
-3.821955919265747070e-01 -1.871337997727096081e-03 -9.603147208690643311e-02
-1.794798821210861206e-01 1.022684946656227112e-01 -1.204569786787033081e-01
-3.177467882633209229e-01 4.034258797764778137e-02 -1.301319152116775513e-01
-4.839255213737487793e-01 -1.494519263505935669e-01 -1.104022637009620667e-01
-1.032106503844261169e-01 6.093521788716316223e-02 -1.563905626535415649e-01
-1.658028811216354370e-01 8.591794222593307495e-02 -1.126702725887298584e-01
-4.794944822788238525e-01 -1.449201554059982300e-01 -1.104894652962684631e-01
-1.717505902051925659e-01 4.571330174803733826e-02 -1.032977476716041565e-01
-3.255060613155364990e-01 7.565271854400634766e-02 -1.419748663902282715e-01
5.014688149094581604e-02 -2.766523510217666626e-02 -1.209642291069030762e-01
1.841783337295055389e-02 -2.695908397436141968e-02 -1.165651232004165649e-01
-2.976016998291015625e-01 5.662508681416511536e-02 -1.286911815404891968e-01
-3.018230199813842773e-01 5.674457177519798279e-02 -1.301415413618087769e-01
-2.985776960849761963e-01 2.788828313350677490e-02 -1.252222806215286255e-01
-9.276118129491806030e-02 6.399979442358016968e-02 -1.594865173101425171e-01
-4.026780426502227783e-01 -8.909625560045242310e-02 -1.543191224336624146e-01
1.122694369405508041e-02 -1.504626218229532242e-02 -1.165721118450164795e-01
-3.221057653427124023e-01 -1.446803659200668335e-02 -1.156706959009170532e-01
-7.924693077802658081e-02 5.065153539180755615e-02 -1.527908146381378174e-01
-4.591968357563018799e-01 -2.859822213649749756e-01 -1.214161664247512817e-01
-4.572183787822723389e-01 -2.963707447052001953e-01 -1.219641491770744324e-01
-2.896216213703155518e-01 2.687225677073001862e-02 -1.234708726406097412e-01
-3.148036003112792969e-01 7.467467337846755981e-02 -1.379343718290328979e-01
-2.062241882085800171e-01 -1.059581935405731201e-01 -1.785209178924560547e-01
-1.295648366212844849e-01 -1.694639329798519611e-03 -1.386787444353103638e-01
-1.303135603666305542e-01 2.003589831292629242e-02 -1.406172662973403931e-01
-8.546876907348632812e-02 5.594732984900474548e-02 -1.560083478689193726e-01
4.432889446616172791e-02 -4.023909196257591248e-02 -1.145532503724098206e-01
-1.734078675508499146e-01 7.526970654726028442e-02 -1.104212477803230286e-01
-4.664789438247680664e-01 -1.316985040903091431e-01 -1.083001643419265747e-01
-8.383039385080337524e-02 3.553862497210502625e-02 -1.466317474842071533e-01
-3.315747380256652832e-01 5.808028206229209900e-02 -1.374584883451461792e-01
-3.196437954902648926e-01 5.279583483934402466e-02 -1.338886171579360962e-01
-3.163755238056182861e-01 -4.055008292198181152e-03 -1.192715764045715332e-01
-9.320737421512603760e-02 6.207096949219703674e-02 -1.585906594991683960e-01
-1.364864408969879150e-01 3.605114668607711792e-02 -1.408715993165969849e-01
-3.425257503986358643e-01 5.484566092491149902e-02 -1.365658044815063477e-01
-1.131717488169670105e-01 6.857065856456756592e-02 -1.556916981935501099e-01
-2.787105143070220947e-01 3.082292713224887848e-02 -1.208827868103981018e-01
-1.463067978620529175e-01 4.557381849735975266e-03 -1.360503882169723511e-01
-4.744925200939178467e-01 -1.385674178600311279e-01 -1.101909279823303223e-01
-3.781505823135375977e-01 -1.713683595880866051e-03 -9.472750127315521240e-02
-3.226266205310821533e-01 5.612428486347198486e-02 -1.354292482137680054e-01
-3.722815215587615967e-01 5.307699088007211685e-03 -9.260684251785278320e-02
-2.899825870990753174e-01 2.041758596897125244e-02 -1.230320781469345093e-01
-3.312275111675262451e-01 3.660890087485313416e-02 -1.294101476669311523e-01
-7.291731983423233032e-02 4.604448378086090088e-02 -1.492309421300888062e-01
-2.005998492240905762e-01 9.723932296037673950e-02 -1.152927130460739136e-01
-4.881658852100372314e-01 -1.328761577606201172e-01 -1.151344254612922668e-01
-1.139643639326095581e-01 6.311830133199691772e-02 -1.539315879344940186e-01
4.401715844869613647e-02 -7.321140263229608536e-03 -1.276927292346954346e-01
-1.746401190757751465e-01 9.482732415199279785e-02 -1.172967031598091125e-01
-3.470820784568786621e-01 -8.262809365987777710e-02 -1.466545462608337402e-01
-4.608400762081146240e-01 -1.632995903491973877e-01 -9.987942129373550415e-02
-3.178941011428833008e-01 6.303737312555313110e-02 -1.363407373428344727e-01
-4.006196260452270508e-01 9.974218904972076416e-03 -1.025111898779869080e-01
-4.524511396884918213e-01 -1.375910043716430664e-01 -1.042798981070518494e-01
-1.031446754932403564e-01 5.319089442491531372e-02 -1.535991579294204712e-01
-3.167031705379486084e-01 5.051703006029129028e-02 -1.327183097600936890e-01
-3.322735726833343506e-01 -5.048288963735103607e-03 -1.154222860932350159e-01
-3.926181495189666748e-01 -5.349173210561275482e-03 -9.864128381013870239e-02
-1.630551367998123169e-01 5.454711616039276123e-02 -1.034618988633155823e-01
-3.744847178459167480e-01 -1.051864475011825562e-01 -1.441470831632614136e-01
-4.014561772346496582e-01 -8.493863046169281006e-02 -1.565326303243637085e-01
-3.579887449741363525e-01 -7.510316371917724609e-02 -1.491675376892089844e-01
3.544000908732414246e-02 -2.295984700322151184e-02 -1.210013255476951599e-01
-3.343655169010162354e-01 3.895648941397666931e-02 -1.301598697900772095e-01
-3.215034902095794678e-01 5.097616836428642273e-02 -1.336532831192016602e-01
-3.228239715099334717e-01 -1.188588142395019531e-02 -1.160872206091880798e-01
-3.323222398757934570e-01 -7.863669842481613159e-02 -1.437751203775405884e-01
-2.830317616462707520e-01 4.181997478008270264e-02 -1.225613802671432495e-01
-4.982600510120391846e-01 -1.456622481346130371e-01 -1.150025874376296997e-01
-3.770534694194793701e-01 -6.540074944496154785e-02 -1.553369760513305664e-01
-3.071181476116180420e-01 -4.146537277847528458e-03 -1.205725818872451782e-01
-8.262039721012115479e-02 4.923628643155097961e-02 -1.525909453630447388e-01
-8.938407897949218750e-02 2.419283427298069000e-02 -1.431070566177368164e-01
-2.024800330400466919e-01 -9.764517098665237427e-02 -1.806738823652267456e-01
-1.740404516458511353e-01 8.537025004625320435e-02 -1.137976199388504028e-01
-3.646406829357147217e-01 -1.068898439407348633e-01 -1.433919072151184082e-01
-3.929769098758697510e-01 -6.431964784860610962e-02 -1.612776666879653931e-01
3.026816248893737793e-02 -3.172964602708816528e-02 -1.172051504254341125e-01
1.550878304988145828e-02 -1.509568467736244202e-02 -1.177808791399002075e-01
-2.719363570213317871e-01 1.652202196419239044e-02 -1.192010343074798584e-01
-9.593740105628967285e-02 1.185163296759128571e-02 -1.401319354772567749e-01
-3.246881663799285889e-01 7.786333560943603516e-02 -1.422199755907058716e-01
-3.503330945968627930e-01 6.095616519451141357e-02 -1.389450579881668091e-01
-3.426444530487060547e-01 1.116894278675317764e-02 -1.182529106736183167e-01
-3.148202896118164062e-01 4.931639879941940308e-02 -1.320558935403823853e-01
-1.771240085363388062e-01 7.412189990282058716e-02 -1.103699579834938049e-01
-1.914193183183670044e-01 6.177944317460060120e-02 -1.067036017775535583e-01
-3.198035061359405518e-01 4.391678050160408020e-02 -1.313381046056747437e-01
-9.625964611768722534e-02 2.492362633347511292e-02 -1.441681981086730957e-01
-4.708225727081298828e-01 -1.175003871321678162e-01 -1.085921525955200195e-01
-2.839251756668090820e-01 2.998005598783493042e-03 -1.214571520686149597e-01
-1.986798644065856934e-01 4.231056571006774902e-02 -1.021725386381149292e-01
-1.092246845364570618e-01 2.240223623812198639e-02 -1.437212377786636353e-01
-1.738154888153076172e-01 9.402750432491302490e-02 -1.169119849801063538e-01
-4.527804553508758545e-01 -1.399205625057220459e-01 -1.041417121887207031e-01
-3.352662920951843262e-01 -8.569229394197463989e-02 -1.447968631982803345e-01
5.808988586068153381e-02 -8.579816669225692749e-03 -1.301113516092300415e-01
-8.144865185022354126e-02 1.031579263508319855e-02 -1.364077180624008179e-01
-4.037016034126281738e-01 -2.428061701357364655e-02 -9.398478269577026367e-02
-1.021908447146415710e-01 -7.881077006459236145e-03 -1.363391280174255371e-01
-1.542303897440433502e-02 -1.385648455470800400e-02 -1.090967357158660889e-01
-3.859496116638183594e-01 -1.324064470827579498e-02 -9.540809690952301025e-02
-3.568333685398101807e-01 -7.484094053506851196e-02 -1.488890647888183594e-01
-7.296475768089294434e-02 5.208427086472511292e-02 -1.522092372179031372e-01
-3.176608681678771973e-01 7.015967369079589844e-02 -1.380394399166107178e-01
-1.778105646371841431e-01 9.549349546432495117e-02 -1.177909821271896362e-01
-4.272128921002149582e-03 -1.387629806995391846e-01 -1.591344177722930908e-01
-3.246051967144012451e-01 5.824124068021774292e-02 -1.364713907241821289e-01
-3.320553600788116455e-01 5.148271098732948303e-02 -1.349569112062454224e-01
-3.830336332321166992e-01 -1.270689722150564194e-02 -9.486607462167739868e-02
-1.265063788741827011e-02 -1.191526651382446289e-01 -1.606138199567794800e-01
4.277512803673744202e-02 -3.416807204484939575e-02 -1.174494847655296326e-01
-3.970834314823150635e-01 -6.672172248363494873e-02 -1.624232530593872070e-01
-3.976154327392578125e-01 -1.564350328408181667e-03 -1.007204949855804443e-01
-3.765306770801544189e-01 -8.244906365871429443e-02 -1.524959057569503784e-01
-1.555423140525817871e-01 7.180273532867431641e-02 -1.056241765618324280e-01
-1.004652157425880432e-01 1.130624208599328995e-02 -1.405683904886245728e-01
-9.476136416196823120e-02 4.439203068614006042e-02 -1.510669738054275513e-01
2.334546670317649841e-02 -4.471630975604057312e-02 -1.120804548263549805e-01
-4.636776149272918701e-01 -1.214361414313316345e-01 -1.070296615362167358e-01
-1.677737981081008911e-01 6.032805144786834717e-02 -1.056519150733947754e-01
-3.550287485122680664e-01 5.671262368559837341e-02 -1.361399292945861816e-01
-1.596880853176116943e-01 6.797800213098526001e-02 -1.057889014482498169e-01
-1.310145109891891479e-01 4.658868908882141113e-02 -1.442388743162155151e-01
-1.414100080728530884e-01 -1.147588808089494705e-02 -1.372522860765457153e-01
-4.924258291721343994e-01 -1.385125070810317993e-01 -1.158538013696670532e-01
-1.658621281385421753e-01 8.278988301753997803e-02 -1.116437315940856934e-01
-1.780952811241149902e-01 1.027744114398956299e-01 -1.205978542566299438e-01
-3.094755411148071289e-01 5.114611610770225525e-02 -1.313254833221435547e-01
4.990690201520919800e-02 -3.650993853807449341e-02 -1.164632439613342285e-01
-1.932048499584197998e-01 7.001871615648269653e-02 -1.085119619965553284e-01
-4.910572767257690430e-01 -1.530276983976364136e-01 -1.106330752372741699e-01
-3.199495375156402588e-01 2.603484503924846649e-02 -1.263641566038131714e-01
-3.715694546699523926e-01 -1.114358454942703247e-01 -1.412982195615768433e-01
-9.533306583762168884e-04 -1.267978698015213013e-01 -1.642649918794631958e-01
-3.409164547920227051e-01 -9.730409830808639526e-02 -1.450223773717880249e-01
-3.224665522575378418e-01 7.655030488967895508e-02 -1.411536931991577148e-01
-3.316878080368041992e-01 3.555796667933464050e-02 -1.290123462677001953e-01
-3.014415502548217773e-01 3.852938488125801086e-02 -1.272522211074829102e-01
-1.798791885375976562e-01 1.079755201935768127e-01 -1.226464807987213135e-01
-3.652653098106384277e-01 5.607575876638293266e-04 -9.031143039464950562e-02
-1.479127109050750732e-01 -8.235328830778598785e-03 -1.360355913639068604e-01
-4.084890186786651611e-01 -2.807332668453454971e-03 -1.027621254324913025e-01
-1.793127506971359253e-01 8.495925366878509521e-02 -1.139802187681198120e-01
-3.494662940502166748e-01 7.691510021686553955e-02 -1.464564204216003418e-01
-1.200044304132461548e-01 4.571801796555519104e-02 -1.475774049758911133e-01
2.242261543869972229e-02 -1.100604701787233353e-02 -1.203241422772407532e-01
-3.599363863468170166e-01 -8.572105318307876587e-03 -8.899432420730590820e-02
-3.418246507644653320e-01 4.569020494818687439e-02 -1.324940174818038940e-01
-3.444297015666961670e-01 2.607505396008491516e-02 -1.237461939454078674e-01
-1.068496555089950562e-01 4.457141831517219543e-02 -1.500849276781082153e-01
-2.687638700008392334e-01 1.128464378416538239e-02 -1.187056750059127808e-01
-3.080424666404724121e-01 6.890998780727386475e-02 -1.343207657337188721e-01
-3.991436064243316650e-01 -2.203164389356970787e-03 -1.009928211569786072e-01
-1.201075688004493713e-01 3.950181975960731506e-02 -1.461662352085113525e-01
-4.125378131866455078e-01 2.034067409113049507e-03 -1.048030555248260498e-01
-3.801093995571136475e-01 -1.312964502722024918e-02 -9.411734342575073242e-02
-3.508286178112030029e-01 -8.609671145677566528e-02 -1.471115052700042725e-01
-2.966691851615905762e-01 5.208752676844596863e-02 -1.278294026851654053e-01
1.021900996565818787e-01 -2.700962722301483154e-01 -1.250341534614562988e-01
-1.570290923118591309e-01 5.626691132783889771e-02 -1.022956520318984985e-01
-3.738060593605041504e-01 -1.599960401654243469e-02 -9.229624271392822266e-02
-1.201009079813957214e-01 1.878630742430686951e-02 -1.421090513467788696e-01
-8.304822444915771484e-02 5.967576801776885986e-02 -1.576451808214187622e-01
-1.362917721271514893e-01 2.871451713144779205e-02 -1.401059031486511230e-01
-2.974106967449188232e-01 5.699919909238815308e-02 -1.286685317754745483e-01
-3.115239441394805908e-01 1.699081808328628540e-02 -1.242727264761924744e-01
-3.387247025966644287e-01 -9.243713319301605225e-02 -1.452029794454574585e-01
-1.477912813425064087e-01 7.831726223230361938e-03 -1.356526464223861694e-01
-3.803737163543701172e-01 -1.411154307425022125e-02 -9.402409195899963379e-02
-8.177214860916137695e-02 1.118629146367311478e-02 -1.368062347173690796e-01
-3.841279745101928711e-01 -1.036741882562637329e-01 -1.450268328189849854e-01
-1.908948272466659546e-01 7.199048995971679688e-02 -1.093353852629661560e-01
-2.164819240570068359e-01 5.712558329105377197e-02 -9.993647783994674683e-02
-1.841309815645217896e-01 5.049048364162445068e-02 -1.048261299729347229e-01
-1.907196342945098877e-01 4.629204049706459045e-02 -1.037729531526565552e-01
1.046436280012130737e-02 -3.672018647193908691e-03 -1.167577952146530151e-01
-3.447125852108001709e-01 -1.010794937610626221e-01 -1.446777135133743286e-01
-3.600613772869110107e-01 -6.750511471182107925e-03 -8.896271884441375732e-02
-4.050613343715667725e-01 2.586896298453211784e-03 -1.034824028611183167e-01
-1.732726395130157471e-01 7.025514543056488037e-02 -1.089370921254158020e-01
-1.502681523561477661e-01 5.540109425783157349e-02 -9.999657422304153442e-02
-3.538723587989807129e-01 -8.805042505264282227e-02 -1.473782062530517578e-01
-1.733398884534835815e-01 8.318106085062026978e-02 -1.129703968763351440e-01
