-1.835121214389801025e-01 -1.224380657076835632e-01 4.678847193717956543e-01
-2.547762989997863770e-01 -1.834193766117095947e-01 4.822332561016082764e-01
-2.483921349048614502e-01 -1.962390393018722534e-01 4.734614789485931396e-01
-1.366463303565979004e-01 -1.642441004514694214e-01 4.705002903938293457e-01
-1.702234745025634766e-01 -2.017004340887069702e-01 4.675208926200866699e-01
-2.004516273736953735e-01 -1.805160194635391235e-01 4.693492650985717773e-01
-1.803565323352813721e-01 -1.560166627168655396e-01 4.681857228279113770e-01
-2.201876789331436157e-01 -1.768817156553268433e-01 4.782242178916931152e-01
-1.804051995277404785e-01 -1.378623098134994507e-01 4.638713002204895020e-01
-1.505282521247863770e-01 -2.040563672780990601e-01 4.706668853759765625e-01
-1.611046940088272095e-01 -1.556219160556793213e-01 4.646155238151550293e-01
-1.446877568960189819e-01 -2.255281358957290649e-01 4.735167622566223145e-01
-1.720751821994781494e-01 -2.186522483825683594e-01 4.768453836441040039e-01
-1.813668906688690186e-01 -1.823987215757369995e-01 4.739179015159606934e-01
-1.891043037176132202e-01 -1.919360607862472534e-01 4.695774018764495850e-01
-1.878946274518966675e-01 -8.815366029739379883e-02 4.619305729866027832e-01
-2.407294660806655884e-01 -1.724309176206588745e-01 4.703350961208343506e-01
-1.712403744459152222e-01 -2.013975828886032104e-01 4.861749112606048584e-01
-1.887140125036239624e-01 -1.161412000656127930e-01 4.613039195537567139e-01
-2.051997631788253784e-01 -1.540251672267913818e-01 4.683522284030914307e-01
-1.812085360288619995e-01 -1.241770163178443909e-01 4.708355665206909180e-01
-2.069639265537261963e-01 -1.109772920608520508e-01 4.714771509170532227e-01
-1.838886141777038574e-01 -1.381410211324691772e-01 4.623844027519226074e-01
-2.521719932556152344e-01 -1.131243482232093811e-01 4.697616100311279297e-01
-1.798158288002014160e-01 -1.125408411026000977e-01 4.792721867561340332e-01
-1.559868901968002319e-01 -2.336880117654800415e-01 4.752005636692047119e-01
-1.847838610410690308e-01 -1.532068252563476562e-01 4.659417271614074707e-01
-1.416331976652145386e-01 -1.546872854232788086e-01 4.786515235900878906e-01
-1.708020418882369995e-01 -2.220769226551055908e-01 4.892226755619049072e-01
-9.333749860525131226e-02 -1.227771192789077759e-01 4.554758369922637939e-01
-2.301632314920425415e-01 -1.721206456422805786e-01 4.703606367111206055e-01
-2.055446952581405640e-01 -1.232228279113769531e-01 4.623280465602874756e-01
-2.826119959354400635e-01 -1.295178234577178955e-01 4.658993184566497803e-01
-2.707928419113159180e-01 -1.167941391468048096e-01 4.549129307270050049e-01
-1.675916910171508789e-01 -1.134021580219268799e-01 4.655997753143310547e-01
-1.809558570384979248e-01 -1.194568499922752380e-01 4.599530398845672607e-01
-1.336251795291900635e-01 -1.549040675163269043e-01 4.722482264041900635e-01
-2.499288320541381836e-01 -1.936975568532943726e-01 4.882529079914093018e-01
-1.874860227108001709e-01 -1.091796606779098511e-01 4.805557429790496826e-01
-2.081409394741058350e-01 -1.087808012962341309e-01 4.725038409233093262e-01
-2.316059470176696777e-01 -1.869122385978698730e-01 4.741902947425842285e-01
-1.382557898759841919e-01 -1.425529867410659790e-01 4.804764091968536377e-01
-1.340346336364746094e-01 -1.252949684858322144e-01 4.572334885597229004e-01
-1.703511625528335571e-01 -2.209686338901519775e-01 4.907551109790802002e-01
-1.403372287750244141e-01 -1.604326665401458740e-01 4.671114683151245117e-01
-1.599050462245941162e-01 -2.075636237859725952e-01 4.684926271438598633e-01
-2.308529764413833618e-01 -1.869829893112182617e-01 4.819052517414093018e-01
-1.791128814220428467e-01 -1.232640892267227173e-01 4.697856009006500244e-01
-1.869416534900665283e-01 -1.151934638619422913e-01 4.688518643379211426e-01
-1.334179192781448364e-01 -1.105159968137741089e-01 4.530671834945678711e-01
-2.057712823152542114e-01 -1.335650533437728882e-01 4.700605571269989014e-01
-1.998762488365173340e-01 -1.332904398441314697e-01 4.854597747325897217e-01
-2.169511020183563232e-01 -1.153197661042213440e-01 4.648348689079284668e-01
-2.096508443355560303e-01 -1.437478065490722656e-01 4.635542631149291992e-01
-1.528057157993316650e-01 -1.779904961585998535e-01 4.790637493133544922e-01
-1.604219377040863037e-01 -1.725110709667205811e-01 4.710645973682403564e-01
-1.598455309867858887e-01 -1.056526377797126770e-01 4.814778268337249756e-01
-2.591289877891540527e-01 -1.777097731828689575e-01 4.725638031959533691e-01
-2.058147490024566650e-01 -1.333511024713516235e-01 4.635533392429351807e-01
-1.745339930057525635e-01 -1.215439960360527039e-01 4.652053713798522949e-01
-1.505381017923355103e-01 -2.043208032846450806e-01 4.773478806018829346e-01
-1.595129370689392090e-01 -1.023223474621772766e-01 4.831504523754119873e-01
-2.063001841306686401e-01 -1.370916068553924561e-01 4.655020534992218018e-01
-2.248860448598861694e-01 -1.875230818986892700e-01 4.701951146125793457e-01
-2.109424024820327759e-01 -1.848432421684265137e-01 4.667137265205383301e-01
-1.664953976869583130e-01 -1.534146964550018311e-01 4.820753335952758789e-01
-2.225826680660247803e-01 -1.325986981391906738e-01 4.731879234313964844e-01
-2.055665254592895508e-01 -1.346505284309387207e-01 4.641343653202056885e-01
-1.291701495647430420e-01 -1.243651211261749268e-01 4.651817083358764648e-01
-1.064008101820945740e-01 -9.901133179664611816e-02 4.483702778816223145e-01
-2.331148833036422729e-01 -1.612265706062316895e-01 4.878863990306854248e-01
-2.171535193920135498e-01 -1.343708187341690063e-01 4.626581072807312012e-01
-1.785740107297897339e-01 -1.156809180974960327e-01 4.907261729240417480e-01
-1.994451880455017090e-01 -1.031628474593162537e-01 4.716753065586090088e-01
-2.021315842866897583e-01 -1.376312524080276489e-01 4.750970005989074707e-01
-1.702889502048492432e-01 -2.215343713760375977e-01 4.725820720195770264e-01
-1.897035837173461914e-01 -1.140874177217483521e-01 4.614061713218688965e-01
-1.439594328403472900e-01 -1.413215994834899902e-01 4.807251095771789551e-01
-1.648066639900207520e-01 -1.982115656137466431e-01 4.655966162681579590e-01
-1.752545684576034546e-01 -1.451125293970108032e-01 4.651292264461517334e-01
-1.861381828784942627e-01 -1.138315796852111816e-01 4.914481937885284424e-01
-2.061503231525421143e-01 -1.406475156545639038e-01 4.788813292980194092e-01
-2.536123692989349365e-01 -1.685215979814529419e-01 4.736565649509429932e-01
-1.345952600240707397e-01 -1.201838105916976929e-01 4.588856399059295654e-01
-1.677228659391403198e-01 -1.054392904043197632e-01 4.589537382125854492e-01
-1.882039308547973633e-01 -1.754575371742248535e-01 4.687713086605072021e-01
-1.708114296197891235e-01 -2.040223032236099243e-01 4.691262543201446533e-01
-1.964599192142486572e-01 -1.930995732545852661e-01 4.685845375061035156e-01
-1.721375584602355957e-01 -1.192185953259468079e-01 4.835549294948577881e-01
-1.522629857063293457e-01 -1.561751514673233032e-01 4.731082320213317871e-01
-2.589038610458374023e-01 -1.309727132320404053e-01 4.839119613170623779e-01
-1.681961417198181152e-01 -1.182504668831825256e-01 4.760486483573913574e-01
-1.651463657617568970e-01 -1.979528069496154785e-01 4.865221977233886719e-01
-1.625004112720489502e-01 -1.456450670957565308e-01 4.883411824703216553e-01
-1.611870080232620239e-01 -1.904390752315521240e-01 4.645955860614776611e-01
-2.330411076545715332e-01 -1.613992154598236084e-01 4.885362684726715088e-01
-2.507974207401275635e-01 -1.200272217392921448e-01 4.764887392520904541e-01
-1.484170407056808472e-01 -1.687123477458953857e-01 4.643692374229431152e-01
-2.443228960037231445e-01 -1.709325164556503296e-01 4.967126250267028809e-01
-2.564463317394256592e-01 -1.379297673702239990e-01 4.629262387752532959e-01
-1.929807513952255249e-01 -1.385712623596191406e-01 4.635636806488037109e-01
-1.636665612459182739e-01 -2.289366275072097778e-01 4.745356738567352295e-01
-1.987376660108566284e-01 -1.931159198284149170e-01 4.700600206851959229e-01
-1.280279755592346191e-01 -1.242345571517944336e-01 4.670707285404205322e-01
-2.272684723138809204e-01 -1.935129761695861816e-01 4.794600903987884521e-01
-1.183638200163841248e-01 -1.311654597520828247e-01 4.630661606788635254e-01
-1.527909487485885620e-01 -1.423949599266052246e-01 4.796473681926727295e-01
-2.546111345291137695e-01 -1.700518578290939331e-01 4.725326597690582275e-01
-1.687328815460205078e-01 -1.054959818720817566e-01 4.733007252216339111e-01
-1.833356320858001709e-01 -1.207661852240562439e-01 4.767110347747802734e-01
-2.061183005571365356e-01 -1.390963345766067505e-01 4.860891401767730713e-01
-1.854299902915954590e-01 -1.479724496603012085e-01 4.765365719795227051e-01
-1.716840416193008423e-01 -2.168706208467483521e-01 4.785758256912231445e-01
-1.509563624858856201e-01 -1.685699969530105591e-01 4.737162292003631592e-01
-1.969981342554092407e-01 -1.773944646120071411e-01 4.898299574851989746e-01
-1.677105724811553955e-01 -1.660985499620437622e-01 4.800044298171997070e-01
-1.677721589803695679e-01 -1.149979755282402039e-01 4.677340090274810791e-01
-1.618558615446090698e-01 -1.290597617626190186e-01 4.669761061668395996e-01
-1.634114831686019897e-01 -1.607998609542846680e-01 4.977423846721649170e-01
-1.670887917280197144e-01 -9.870915859937667847e-02 4.765657782554626465e-01
-1.596015840768814087e-01 -9.935948252677917480e-02 4.719885885715484619e-01
-1.856001019477844238e-01 -1.094399839639663696e-01 4.842134118080139160e-01
-2.320790141820907593e-01 -1.939350068569183350e-01 4.707953631877899170e-01
-2.065223306417465210e-01 -1.318800896406173706e-01 4.652337133884429932e-01
-1.719644814729690552e-01 -1.185773089528083801e-01 4.852856993675231934e-01
-2.046769410371780396e-01 -2.089543938636779785e-01 4.739514291286468506e-01
-1.547312289476394653e-01 -2.050557434558868408e-01 4.900405704975128174e-01
-1.813293546438217163e-01 -2.131503671407699585e-01 4.745545983314514160e-01
-1.576826870441436768e-01 -1.950260847806930542e-01 4.846866130828857422e-01
-1.571961641311645508e-01 -2.241906076669692993e-01 4.660652577877044678e-01
-1.481245309114456177e-01 -1.681606918573379517e-01 4.751197993755340576e-01
-1.736953705549240112e-01 -1.113691776990890503e-01 4.721232652664184570e-01
-2.123756706714630127e-01 -1.884540468454360962e-01 4.680145382881164551e-01
-1.983073055744171143e-01 -1.077313423156738281e-01 4.684481620788574219e-01
-1.664450317621231079e-01 -1.526507139205932617e-01 4.745665490627288818e-01
-2.327570319175720215e-01 -1.339109539985656738e-01 4.764728546142578125e-01
-1.903265863656997681e-01 -1.172239407896995544e-01 4.808172285556793213e-01
-1.510285884141921997e-01 -1.478123813867568970e-01 4.683369994163513184e-01
-2.401914596557617188e-01 -1.605434566736221313e-01 4.800032079219818115e-01
-1.860080063343048096e-01 -1.055218502879142761e-01 4.657222330570220947e-01
-1.642042398452758789e-01 -2.305341064929962158e-01 4.766812622547149658e-01
-1.648549288511276245e-01 -2.239466756582260132e-01 4.696059525012969971e-01
-2.675546705722808838e-01 -1.457256674766540527e-01 4.590112864971160889e-01
-1.879632771015167236e-01 -1.469023078680038452e-01 4.742525815963745117e-01
-1.630523800849914551e-01 -1.703135222196578979e-01 4.690508246421813965e-01
-1.475798785686492920e-01 -1.960133314132690430e-01 4.713462591171264648e-01
-1.979592889547348022e-01 -1.733838915824890137e-01 4.709036350250244141e-01
-1.359973102807998657e-01 -1.463467478752136230e-01 4.739596545696258545e-01
-1.641993820667266846e-01 -9.613581001758575439e-02 4.820605814456939697e-01
-1.671691536903381348e-01 -1.659524887800216675e-01 4.851295053958892822e-01
-2.534266710281372070e-01 -1.655792742967605591e-01 4.780407845973968506e-01
-2.040113508701324463e-01 -1.307393461465835571e-01 4.949264526367187500e-01
-2.267703264951705933e-01 -1.935921758413314819e-01 4.815585315227508545e-01
-2.301644086837768555e-01 -1.841956079006195068e-01 4.685549437999725342e-01
-1.832401007413864136e-01 -1.176760718226432800e-01 4.863388538360595703e-01
-1.561626791954040527e-01 -1.538664251565933228e-01 4.873921573162078857e-01
-1.512408405542373657e-01 -1.521932631731033325e-01 4.919588863849639893e-01
-2.315648198127746582e-01 -1.827745437622070312e-01 4.651764035224914551e-01
-1.836887449026107788e-01 -1.231369450688362122e-01 4.617363214492797852e-01
-2.336971461772918701e-01 -1.695891022682189941e-01 4.744195640087127686e-01
-1.599364131689071655e-01 -9.601619839668273926e-02 4.696766436100006104e-01
-1.789871007204055786e-01 -2.215974032878875732e-01 4.714515209197998047e-01
-1.632941365242004395e-01 -1.125761941075325012e-01 4.790004491806030273e-01
-1.838244795799255371e-01 -1.526089906692504883e-01 4.716527163982391357e-01
-1.988680958747863770e-01 -9.712541848421096802e-02 4.699583053588867188e-01
-2.553750276565551758e-01 -1.748544871807098389e-01 4.882795512676239014e-01
-1.384741663932800293e-01 -1.605764478445053101e-01 4.685335457324981689e-01
-2.203595489263534546e-01 -1.756559163331985474e-01 4.739410877227783203e-01
-1.687147170305252075e-01 -1.180119141936302185e-01 4.722693860530853271e-01
-2.471020370721817017e-01 -1.208408623933792114e-01 4.605439305305480957e-01
-2.357379198074340820e-01 -1.303730607032775879e-01 4.786363244056701660e-01
-1.862435042858123779e-01 -1.514180749654769897e-01 4.684670567512512207e-01
-1.934844255447387695e-01 -1.087551414966583252e-01 4.572975039482116699e-01
-2.103247195482254028e-01 -1.843243390321731567e-01 4.656685590744018555e-01
-1.990857571363449097e-01 -1.063581556081771851e-01 4.707757830619812012e-01
-2.026932686567306519e-01 -1.521907895803451538e-01 4.654956161975860596e-01
-1.919863224029541016e-01 -1.821455955505371094e-01 4.718402922153472900e-01
-2.262506783008575439e-01 -1.661376804113388062e-01 4.712919890880584717e-01
-1.811277419328689575e-01 -1.838590651750564575e-01 4.731820821762084961e-01
-1.849103569984436035e-01 -1.084133386611938477e-01 4.580470025539398193e-01
-1.536319106817245483e-01 -1.573244184255599976e-01 4.672749638557434082e-01
-1.496852040290832520e-01 -1.955124586820602417e-01 4.680175185203552246e-01
-2.239447385072708130e-01 -1.722826212644577026e-01 4.877431094646453857e-01
-2.211781293153762817e-01 -1.295225173234939575e-01 4.689492285251617432e-01
-1.932415217161178589e-01 -1.367705315351486206e-01 4.686914384365081787e-01
-1.610442548990249634e-01 -1.566400080919265747e-01 5.000000000000000000e-01
-1.831730902194976807e-01 -1.819284111261367798e-01 4.684545695781707764e-01
-1.959763616323471069e-01 -1.111949160695075989e-01 4.632789790630340576e-01
-1.438866406679153442e-01 -1.640531867742538452e-01 4.733401536941528320e-01
-2.299438863992691040e-01 -1.808580905199050903e-01 4.727583229541778564e-01
-2.467604875564575195e-01 -1.688930094242095947e-01 4.893038570880889893e-01
-2.612086236476898193e-01 -1.473506391048431396e-01 4.608092308044433594e-01
-2.415440082550048828e-01 -1.768409311771392822e-01 4.687853157520294189e-01
-1.753540784120559692e-01 -1.358527541160583496e-01 4.652293920516967773e-01
-1.468428075313568115e-01 -2.211933583021163940e-01 4.708310067653656006e-01
-2.075832784175872803e-01 -1.326580047607421875e-01 4.697467684745788574e-01
-2.012881338596343994e-01 -1.836360394954681396e-01 4.761101901531219482e-01
-2.069223821163177490e-01 -1.300673633813858032e-01 4.795979857444763184e-01
-1.932891458272933960e-01 -1.378640383481979370e-01 4.659745395183563232e-01
-1.520567685365676880e-01 -1.580943316221237183e-01 4.694097936153411865e-01
-1.315841376781463623e-01 -1.068097651004791260e-01 4.518205523490905762e-01
-2.341424971818923950e-01 -1.992812454700469971e-01 4.924318492412567139e-01
-1.827587634325027466e-01 -1.986542195081710815e-01 4.672331213951110840e-01
-1.887257248163223267e-01 -1.301945745944976807e-01 4.719926118850708008e-01
-1.616134345531463623e-01 -1.477636396884918213e-01 4.719711542129516602e-01
-2.075126618146896362e-01 -1.559324264526367188e-01 4.697882533073425293e-01
-2.549573779106140137e-01 -1.783213615417480469e-01 4.838211238384246826e-01
-2.009006142616271973e-01 -9.458391368389129639e-02 4.800851345062255859e-01
-2.162003517150878906e-01 -1.278814822435379028e-01 4.784817993640899658e-01
-2.498203068971633911e-01 -1.318928599357604980e-01 4.684126973152160645e-01
-2.273304462432861328e-01 -1.943260282278060913e-01 4.819407165050506592e-01
-1.963674724102020264e-01 -1.756964176893234253e-01 4.871431291103363037e-01
-2.771881520748138428e-01 -1.346120387315750122e-01 4.673595130443572998e-01
-2.523222565650939941e-01 -1.644987612962722778e-01 4.789898693561553955e-01
-1.453786492347717285e-01 -1.710474193096160889e-01 4.670843482017517090e-01
-1.544194817543029785e-01 -1.654062420129776001e-01 4.725469648838043213e-01
-2.042139172554016113e-01 -1.213804408907890320e-01 4.652890563011169434e-01
-2.521970272064208984e-01 -1.047725453972816467e-01 4.607032239437103271e-01
-1.651604175567626953e-01 -1.148581877350807190e-01 4.779566526412963867e-01
-2.060572206974029541e-01 -1.290003061294555664e-01 4.766251146793365479e-01
-1.568991243839263916e-01 -1.425238847732543945e-01 4.820576012134552002e-01
-1.834912896156311035e-01 -1.247282922267913818e-01 4.672701656818389893e-01
-1.870205402374267578e-01 -9.251337498426437378e-02 4.714567065238952637e-01
-1.816931664943695068e-01 -2.120038717985153198e-01 4.776917099952697754e-01
-2.530656754970550537e-01 -1.122328341007232666e-01 4.781833887100219727e-01
-1.766366660594940186e-01 -1.362535357475280762e-01 4.657503068447113037e-01
-1.679783612489700317e-01 -1.586677730083465576e-01 4.667016565799713135e-01
-2.454063445329666138e-01 -1.611921638250350952e-01 4.808187186717987061e-01
-2.470836937427520752e-01 -1.907353848218917847e-01 4.691149592399597168e-01
-2.059015035629272461e-01 -1.373818814754486084e-01 4.622197449207305908e-01
-2.250879406929016113e-01 -1.696912348270416260e-01 4.861204922199249268e-01
-1.892306059598922729e-01 -1.045548990368843079e-01 4.856663644313812256e-01
-1.954069584608078003e-01 -1.738075464963912964e-01 4.670442640781402588e-01
-1.516457647085189819e-01 -1.934957802295684814e-01 4.692269861698150635e-01
-1.586991250514984131e-01 -2.081719785928726196e-01 4.665803313255310059e-01
-2.410514950752258301e-01 -1.919948756694793701e-01 4.671433269977569580e-01
-1.649799197912216187e-01 -1.489309817552566528e-01 4.785204231739044189e-01
-1.535554826259613037e-01 -1.621836870908737183e-01 4.810404181480407715e-01
-1.530672311782836914e-01 -2.196085005998611450e-01 4.646479785442352295e-01
-1.636711508035659790e-01 -1.598511040210723877e-01 4.690570235252380371e-01
-1.936328113079071045e-01 -1.736735105514526367e-01 4.729107618331909180e-01
-2.077794522047042847e-01 -1.253732591867446899e-01 4.834269285202026367e-01
-1.444107741117477417e-01 -1.992882490158081055e-01 4.703102111816406250e-01
-1.655452847480773926e-01 -1.621401607990264893e-01 4.934365749359130859e-01
-2.356009185314178467e-01 -1.833931505680084229e-01 4.667704105377197266e-01
-1.940733045339584351e-01 -1.776611506938934326e-01 4.897244870662689209e-01
-2.282690405845642090e-01 -1.824669837951660156e-01 4.655876159667968750e-01
-1.563805937767028809e-01 -1.638858169317245483e-01 4.785481095314025879e-01
-2.481414526700973511e-01 -1.751888096332550049e-01 4.772468209266662598e-01
-1.518349051475524902e-01 -2.041894048452377319e-01 4.811575412750244141e-01
-1.631037890911102295e-01 -2.019195109605789185e-01 4.791617393493652344e-01
-2.466167658567428589e-01 -1.933358907699584961e-01 4.850482642650604248e-01
-2.284299433231353760e-01 -1.955747455358505249e-01 4.822505712509155273e-01
-2.095440179109573364e-01 -1.183118969202041626e-01 4.783269166946411133e-01
-1.624387055635452271e-01 -2.280942499637603760e-01 4.726771712303161621e-01
-2.555389106273651123e-01 -1.364395618438720703e-01 4.662466347217559814e-01
-1.704065352678298950e-01 -2.165706157684326172e-01 4.858058691024780273e-01
-2.541435956954956055e-01 -1.306942254304885864e-01 4.768059849739074707e-01
-2.315741926431655884e-01 -1.637492179870605469e-01 4.916172027587890625e-01
-1.931816488504409790e-01 -1.398126929998397827e-01 4.714124798774719238e-01
-1.679133474826812744e-01 -1.994385421276092529e-01 4.866350591182708740e-01
-1.917260438203811646e-01 -9.504786878824234009e-02 4.748137295246124268e-01
-1.801062822341918945e-01 -1.185917928814888000e-01 4.613850116729736328e-01
-2.115437239408493042e-01 -1.390712708234786987e-01 4.665988683700561523e-01
-1.933309882879257202e-01 -1.368805319070816040e-01 4.690793156623840332e-01
-2.386493831872940063e-01 -1.607218384742736816e-01 4.786979556083679199e-01
-2.199844568967819214e-01 -1.331714391708374023e-01 4.676453471183776855e-01
-1.781294792890548706e-01 -1.085423976182937622e-01 4.610608518123626709e-01
-1.913934797048568726e-01 -1.758483350276947021e-01 4.857889711856842041e-01
-1.394380927085876465e-01 -2.052206844091415405e-01 4.761125743389129639e-01
-2.149956673383712769e-01 -1.228721439838409424e-01 4.670923054218292236e-01
-1.605404466390609741e-01 -2.015499174594879150e-01 4.772349596023559570e-01
-1.721452027559280396e-01 -2.087651789188385010e-01 4.696475863456726074e-01
-1.478893160820007324e-01 -1.754746288061141968e-01 4.702099263668060303e-01
-2.077253311872482300e-01 -1.348219662904739380e-01 4.769265055656433105e-01
-2.012932896614074707e-01 -9.813995659351348877e-02 4.818281233310699463e-01
-1.809958517551422119e-01 -1.984667629003524780e-01 4.712534248828887939e-01
-2.244781404733657837e-01 -1.924948245286941528e-01 4.883829057216644287e-01
-1.781823784112930298e-01 -8.060089498758316040e-02 4.693462550640106201e-01
-1.627024263143539429e-01 -1.031309515237808228e-01 4.670516252517700195e-01
-1.716037094593048096e-01 -1.079410612583160400e-01 4.795936942100524902e-01
-1.816013306379318237e-01 -2.131579071283340454e-01 4.776449799537658691e-01
-1.815784126520156860e-01 -1.235541924834251404e-01 4.648463428020477295e-01
-2.563851177692413330e-01 -1.916083544492721558e-01 4.757356345653533936e-01
-1.761803179979324341e-01 -2.262679934501647949e-01 4.690978229045867920e-01
-1.665298044681549072e-01 -1.692733466625213623e-01 4.863799512386322021e-01
-1.782866865396499634e-01 -1.144994497299194336e-01 4.612080454826354980e-01
-1.887033283710479736e-01 -1.198403909802436829e-01 4.746015369892120361e-01
-1.855388879776000977e-01 -1.108703985810279846e-01 4.689907431602478027e-01
-1.535367667675018311e-01 -1.527490019798278809e-01 4.620813131332397461e-01
-1.384402513504028320e-01 -2.089040428400039673e-01 4.710447192192077637e-01
-1.792054176330566406e-01 -1.882094889879226685e-01 4.826598167419433594e-01
-1.127563416957855225e-01 -1.327298283576965332e-01 4.611477851867675781e-01
-1.964132636785507202e-01 -1.881917566061019897e-01 4.760731458663940430e-01
-2.597745060920715332e-01 -1.358720660209655762e-01 4.731561541557312012e-01
-2.624865174293518066e-01 -1.373530477285385132e-01 4.715824425220489502e-01
-2.172611802816390991e-01 -1.437415778636932373e-01 4.625590741634368896e-01
-1.648143231868743896e-01 -2.124978154897689819e-01 4.660442173480987549e-01
-1.790981143712997437e-01 -1.877670586109161377e-01 4.811375141143798828e-01
-1.711143702268600464e-01 -9.283740818500518799e-02 4.609646797180175781e-01
-1.895918995141983032e-01 -2.054744809865951538e-01 4.674013257026672363e-01
-1.836607754230499268e-01 -1.251399964094161987e-01 4.644859135150909424e-01
-1.419859528541564941e-01 -1.795438379049301147e-01 4.783185422420501709e-01
-1.413860619068145752e-01 -1.434211730957031250e-01 4.767132401466369629e-01
-1.449360251426696777e-01 -1.972642689943313599e-01 4.759008288383483887e-01
-1.687492132186889648e-01 -2.227894365787506104e-01 4.721734523773193359e-01
-1.440427601337432861e-01 -1.172992065548896790e-01 4.572232067584991455e-01
-2.196880429983139038e-01 -1.782184541225433350e-01 4.743217229843139648e-01
-1.850098818540573120e-01 -1.156348139047622681e-01 4.643381536006927490e-01
-1.552192866802215576e-01 -1.686117351055145264e-01 4.844894409179687500e-01
-1.541482806205749512e-01 -1.750710904598236084e-01 4.717382788658142090e-01
-2.782690525054931641e-01 -1.354847997426986694e-01 4.700149595737457275e-01
-1.671235859394073486e-01 -2.045557647943496704e-01 4.666917920112609863e-01
-2.436982840299606323e-01 -1.690185070037841797e-01 4.897845387458801270e-01
-1.678083986043930054e-01 -1.658736169338226318e-01 4.784837067127227783e-01
-1.670415103435516357e-01 -1.690268069505691528e-01 4.831907749176025391e-01
-1.942808628082275391e-01 -1.796659976243972778e-01 4.700139462947845459e-01
-2.427967190742492676e-01 -1.100219711661338806e-01 4.607844650745391846e-01
-1.786584705114364624e-01 -1.194907799363136292e-01 4.826019108295440674e-01
-1.579347848892211914e-01 -1.667147874832153320e-01 4.815529286861419678e-01
-2.217442542314529419e-01 -1.722287386655807495e-01 4.738672971725463867e-01
-1.533221900463104248e-01 -1.652093082666397095e-01 4.726860523223876953e-01
-1.696542203426361084e-01 -2.092841714620590210e-01 4.793288409709930420e-01
-9.923703223466873169e-02 -1.191187873482704163e-01 4.490092098712921143e-01
-1.341225206851959229e-01 -1.123934909701347351e-01 4.536406397819519043e-01
-1.533943563699722290e-01 -1.645461767911911011e-01 4.695852696895599365e-01
-1.885003447532653809e-01 -1.887313574552536011e-01 4.739016890525817871e-01
-2.361416220664978027e-01 -1.198893487453460693e-01 4.615675210952758789e-01
-1.726229041814804077e-01 -2.067381292581558228e-01 4.656048417091369629e-01
-1.815091669559478760e-01 -1.074613332748413086e-01 4.730450212955474854e-01
-1.603119224309921265e-01 -2.222597748041152954e-01 4.649650156497955322e-01
-1.938742399215698242e-01 -8.980040997266769409e-02 4.633061289787292480e-01
-1.411071121692657471e-01 -2.273513078689575195e-01 4.774891138076782227e-01
-1.538669466972351074e-01 -1.675179302692413330e-01 4.696555435657501221e-01
-1.990881711244583130e-01 -2.104137837886810303e-01 4.752475619316101074e-01
-1.627423167228698730e-01 -1.077523306012153625e-01 4.711389839649200439e-01
-2.044827938079833984e-01 -1.102846935391426086e-01 4.765243530273437500e-01
-1.814142465591430664e-01 -1.477322280406951904e-01 4.634591341018676758e-01
-1.812783479690551758e-01 -2.028123736381530762e-01 4.756515920162200928e-01
-2.372297346591949463e-01 -1.317597031593322754e-01 4.604557752609252930e-01
-1.473365873098373413e-01 -1.953891515731811523e-01 4.740451872348785400e-01
-2.008742392063140869e-01 -1.918541342020034790e-01 4.694749712944030762e-01
-2.073299586772918701e-01 -1.419762820005416870e-01 4.711101353168487549e-01
-1.708041429519653320e-01 -9.206523746252059937e-02 4.614422321319580078e-01
-1.411832123994827271e-01 -1.689749658107757568e-01 4.836555719375610352e-01
-1.329611986875534058e-01 -1.191489100456237793e-01 4.633282124996185303e-01
-2.319966256618499756e-01 -1.812207698822021484e-01 4.653512239456176758e-01
-2.331767380237579346e-01 -1.189581081271171570e-01 4.721698164939880371e-01
-2.520742714405059814e-01 -1.840732246637344360e-01 4.789753854274749756e-01
-2.373979240655899048e-01 -1.691724210977554321e-01 4.771679937839508057e-01
-2.457178682088851929e-01 -1.336615830659866333e-01 4.750767648220062256e-01
-2.247751504182815552e-01 -1.767124086618423462e-01 4.693840742111206055e-01
-2.465639263391494751e-01 -1.670188754796981812e-01 4.700835049152374268e-01
-2.039295583963394165e-01 -1.195130050182342529e-01 4.671985208988189697e-01
-2.263345867395401001e-01 -1.683107763528823853e-01 4.871350526809692383e-01
-2.028993666172027588e-01 -2.045995444059371948e-01 4.662283062934875488e-01
-1.915134638547897339e-01 -1.815708577632904053e-01 4.681431055068969727e-01
-1.789152175188064575e-01 -1.224043890833854675e-01 4.626791477203369141e-01
-1.847786754369735718e-01 -1.128165423870086670e-01 4.679671525955200195e-01
-1.740223914384841919e-01 -1.366194635629653931e-01 4.614046216011047363e-01
-2.021158635616302490e-01 -1.296838223934173584e-01 4.630450904369354248e-01
-1.438684910535812378e-01 -1.984720379114151001e-01 4.770500063896179199e-01
-2.282115072011947632e-01 -1.747733503580093384e-01 4.992842078208923340e-01
-1.354415118694305420e-01 -1.686873584985733032e-01 4.727555811405181885e-01
-1.096825972199440002e-01 -1.315439492464065552e-01 4.534279108047485352e-01
-1.280481070280075073e-01 -1.240445747971534729e-01 4.673701226711273193e-01
-1.720568984746932983e-01 -9.076542407274246216e-02 4.616439342498779297e-01
-1.883886158466339111e-01 -1.126541420817375183e-01 4.597029387950897217e-01
-1.434559077024459839e-01 -2.088827937841415405e-01 4.920850694179534912e-01
-2.311620861291885376e-01 -1.633746474981307983e-01 4.896832406520843506e-01
-2.315353900194168091e-01 -1.815626323223114014e-01 4.754768610000610352e-01
-2.368466407060623169e-01 -1.864044368267059326e-01 4.990644752979278564e-01
-1.877649873495101929e-01 -1.134386211633682251e-01 4.625152051448822021e-01
-2.464538663625717163e-01 -1.933702379465103149e-01 4.850712716579437256e-01
-2.295782417058944702e-01 -1.650229692459106445e-01 4.898038804531097412e-01
-2.356193214654922485e-01 -1.910566836595535278e-01 4.924529790878295898e-01
-1.453864425420761108e-01 -1.808117181062698364e-01 4.845115542411804199e-01
-1.545258611440658569e-01 -1.650742292404174805e-01 4.690076112747192383e-01
-2.522029280662536621e-01 -2.285301834344863892e-01 4.643078148365020752e-01
-2.349217534065246582e-01 -1.960773617029190063e-01 4.715791642665863037e-01
-2.372486889362335205e-01 -1.242005676031112671e-01 4.646227359771728516e-01
-2.578218579292297363e-01 -1.674882918596267700e-01 4.823962450027465820e-01
-2.533381879329681396e-01 -1.707808077335357666e-01 4.705592691898345947e-01
-1.876982301473617554e-01 -1.880729049444198608e-01 4.695552587509155273e-01
-2.349864393472671509e-01 -1.693843305110931396e-01 4.746030271053314209e-01
-2.620384097099304199e-01 -1.062382459640502930e-01 4.636391103267669678e-01
-1.904392540454864502e-01 -1.436583548784255981e-01 4.734871387481689453e-01
-1.299530118703842163e-01 -1.051501184701919556e-01 4.683906137943267822e-01
-2.254926711320877075e-01 -1.672145724296569824e-01 4.673421382904052734e-01
-2.003481537103652954e-01 -1.046653091907501221e-01 4.755552113056182861e-01
-1.790388822555541992e-01 -1.171596050262451172e-01 4.885550439357757568e-01
-2.736401557922363281e-01 -1.253221482038497925e-01 4.555211961269378662e-01
-9.743702411651611328e-02 -1.217820793390274048e-01 4.518088102340698242e-01
-1.993422806262969971e-01 -1.916623711585998535e-01 4.743696749210357666e-01
-2.013926953077316284e-01 -1.322504580020904541e-01 4.909954369068145752e-01
-2.313565909862518311e-01 -1.295960098505020142e-01 4.681591391563415527e-01
-1.862076371908187866e-01 -1.493458896875381470e-01 4.737387895584106445e-01
-1.654523462057113647e-01 -1.260469108819961548e-01 4.634264111518859863e-01
-1.995984017848968506e-01 -1.058819070458412170e-01 4.729634821414947510e-01
-2.226226776838302612e-01 -1.706958860158920288e-01 4.742831587791442871e-01
-2.505460977554321289e-01 -1.916412711143493652e-01 4.838405847549438477e-01
-1.513193249702453613e-01 -1.750870794057846069e-01 4.704307913780212402e-01
-1.177432462573051453e-01 -1.311433166265487671e-01 4.640938043594360352e-01
-1.811170876026153564e-01 -1.253381520509719849e-01 4.733339846134185791e-01
-1.849177479743957520e-01 -1.209600791335105896e-01 4.746569097042083740e-01
-2.206770032644271851e-01 -1.324425637722015381e-01 4.687099158763885498e-01
-1.824340373277664185e-01 -1.143613085150718689e-01 4.763635396957397461e-01
-9.335600584745407104e-02 -1.210927739739418030e-01 4.541191458702087402e-01
-2.028937637805938721e-01 -1.738622784614562988e-01 4.787186384201049805e-01
-2.506473958492279053e-01 -1.797025352716445923e-01 4.781344532966613770e-01
-1.727974563837051392e-01 -1.110721603035926819e-01 4.694341421127319336e-01
-2.132799327373504639e-01 -1.837544888257980347e-01 4.741917848587036133e-01
-1.893487572669982910e-01 -1.304803192615509033e-01 4.670761525630950928e-01
-2.463624179363250732e-01 -1.599423289299011230e-01 4.867233335971832275e-01
-1.872728914022445679e-01 -1.224867329001426697e-01 4.597391784191131592e-01
-2.178536802530288696e-01 -1.280063986778259277e-01 4.700115621089935303e-01
-1.560525149106979370e-01 -1.787339746952056885e-01 4.902821481227874756e-01
-2.297408580780029297e-01 -1.970880180597305298e-01 4.833883941173553467e-01
-1.834413260221481323e-01 -9.540756046772003174e-02 4.661843180656433105e-01
-1.167887076735496521e-01 -9.777761995792388916e-02 4.505138695240020752e-01
-1.699933558702468872e-01 -1.961407959461212158e-01 4.768193066120147705e-01
-2.495677024126052856e-01 -1.953513771295547485e-01 4.734128415584564209e-01
-1.949376612901687622e-01 -1.820424050092697144e-01 4.679257273674011230e-01
-2.410190105438232422e-01 -1.587428152561187744e-01 4.869402348995208740e-01
-1.800184249877929688e-01 -1.165770739316940308e-01 4.624105393886566162e-01
-2.815998494625091553e-01 -1.282124370336532593e-01 4.639201760292053223e-01
-1.575696915388107300e-01 -1.443591862916946411e-01 4.771476984024047852e-01
-2.284069061279296875e-01 -1.845681369304656982e-01 4.741820693016052246e-01
-1.454974561929702759e-01 -1.410117000341415405e-01 4.813735783100128174e-01
-1.746251732110977173e-01 -1.569592058658599854e-01 4.638199806213378906e-01
-1.348516494035720825e-01 -1.683225631713867188e-01 4.730672240257263184e-01
-1.962097138166427612e-01 -1.115653961896896362e-01 4.641321003437042236e-01
-1.732349991798400879e-01 -8.759786933660507202e-02 4.630927741527557373e-01
-2.536418139934539795e-01 -2.284571230411529541e-01 4.622822403907775879e-01
-2.116341441869735718e-01 -1.439110040664672852e-01 4.712144732475280762e-01
-1.490116268396377563e-01 -1.527121812105178833e-01 4.737239778041839600e-01
-1.496866345405578613e-01 -1.658676862716674805e-01 4.702122807502746582e-01
-2.169563770294189453e-01 -1.411835253238677979e-01 4.636117815971374512e-01
-1.662200093269348145e-01 -1.689449548721313477e-01 4.883662760257720947e-01
-2.365626245737075806e-01 -1.832209676504135132e-01 4.745564460754394531e-01
-1.459416598081588745e-01 -1.591409593820571899e-01 4.708696007728576660e-01
-1.498619914054870605e-01 -1.524846553802490234e-01 4.935854971408843994e-01
-1.943943202495574951e-01 -1.833411753177642822e-01 4.700124859809875488e-01
-1.831334978342056274e-01 -1.248934790492057800e-01 4.636472761631011963e-01
-2.582843303680419922e-01 -1.841316074132919312e-01 4.734082520008087158e-01
-2.105616480112075806e-01 -1.431447416543960571e-01 4.796457588672637939e-01
-2.420796602964401245e-01 -1.663704067468643188e-01 4.682720005512237549e-01
-2.402079105377197266e-01 -1.331359297037124634e-01 4.673097133636474609e-01
-2.058286517858505249e-01 -1.409756690263748169e-01 4.672580957412719727e-01
-1.651090383529663086e-01 -1.498556286096572876e-01 4.832339882850646973e-01
-2.184901833534240723e-01 -1.301532387733459473e-01 4.761353433132171631e-01
-1.510326713323593140e-01 -1.565578877925872803e-01 4.741996526718139648e-01
-1.876098513603210449e-01 -1.117660403251647949e-01 4.638561010360717773e-01
-2.245194315910339355e-01 -2.422714531421661377e-01 4.662838876247406006e-01
-1.766510307788848877e-01 -2.038173079490661621e-01 4.830638170242309570e-01
-1.614578813314437866e-01 -1.493552029132843018e-01 4.691017568111419678e-01
-1.810540109872817993e-01 -1.390086412429809570e-01 4.629703462123870850e-01
-1.617866456508636475e-01 -1.597606539726257324e-01 4.994725883007049561e-01
-1.985460072755813599e-01 -1.294688284397125244e-01 4.714691042900085449e-01
-1.625898331403732300e-01 -1.723933070898056030e-01 4.742981791496276855e-01
-2.386880815029144287e-01 -1.151949763298034668e-01 4.574236571788787842e-01
-2.514065802097320557e-01 -1.953980773687362671e-01 4.746302962303161621e-01
-1.911670863628387451e-01 -1.090101599693298340e-01 4.646950960159301758e-01
-1.564712226390838623e-01 -1.569435596466064453e-01 4.636219143867492676e-01
-1.806594282388687134e-01 -2.180912941694259644e-01 4.783502221107482910e-01
-1.789837330579757690e-01 -1.937403082847595215e-01 4.775838553905487061e-01
-2.375362813472747803e-01 -1.277416199445724487e-01 4.638920128345489502e-01
-2.433194816112518311e-01 -1.640389710664749146e-01 4.729510247707366943e-01
-1.621055155992507935e-01 -1.039122492074966431e-01 4.687886834144592285e-01
-1.077294126152992249e-01 -1.312154084444046021e-01 4.549300670623779297e-01
-1.941851973533630371e-01 -1.965994387865066528e-01 4.686430692672729492e-01
-2.096430957317352295e-01 -1.387383490800857544e-01 4.675779640674591064e-01
-1.758333742618560791e-01 -8.034624904394149780e-02 4.705066680908203125e-01
-1.574195325374603271e-01 -1.554669141769409180e-01 4.665243923664093018e-01
-2.403385937213897705e-01 -1.689701378345489502e-01 4.788736999034881592e-01
-1.950282901525497437e-01 -2.102894186973571777e-01 4.753302037715911865e-01
-1.547197550535202026e-01 -2.035343647003173828e-01 4.819279909133911133e-01
-1.914080083370208740e-01 -1.402698010206222534e-01 4.745617806911468506e-01
-1.491440832614898682e-01 -1.505291312932968140e-01 4.904767274856567383e-01
-2.362254709005355835e-01 -2.000183016061782837e-01 4.785856306552886963e-01
-2.458684146404266357e-01 -1.913541555404663086e-01 4.812340438365936279e-01
-1.592051982879638672e-01 -2.269288748502731323e-01 4.696594178676605225e-01
-1.385830789804458618e-01 -1.702442467212677002e-01 4.711339473724365234e-01
-1.565772593021392822e-01 -1.543311327695846558e-01 4.875564277172088623e-01
-2.151191234588623047e-01 -1.182347312569618225e-01 4.738050997257232666e-01
-2.505752742290496826e-01 -1.341429352760314941e-01 4.653089940547943115e-01
-2.228133231401443481e-01 -1.287069171667098999e-01 4.720995426177978516e-01
-1.871719658374786377e-01 -8.609630912542343140e-02 4.768309295177459717e-01
-1.650180965662002563e-01 -1.491331756114959717e-01 4.808933138847351074e-01
-2.573004066944122314e-01 -1.329090446233749390e-01 4.773392379283905029e-01
-2.371131777763366699e-01 -1.788315027952194214e-01 4.796570837497711182e-01
-1.382057219743728638e-01 -1.311097443103790283e-01 4.597588479518890381e-01
-1.817596107721328735e-01 -2.117207646369934082e-01 4.786659777164459229e-01
-1.576509773731231689e-01 -2.022371888160705566e-01 4.783385097980499268e-01
-2.316880077123641968e-01 -1.816323697566986084e-01 4.666617512702941895e-01
-2.076475024223327637e-01 -1.308725923299789429e-01 4.706366658210754395e-01
-2.260519564151763916e-01 -1.766888499259948730e-01 4.978862106800079346e-01
-1.426603943109512329e-01 -1.647965162992477417e-01 4.753962755203247070e-01
-2.155075222253799438e-01 -1.360938400030136108e-01 4.665626287460327148e-01
-2.250369787216186523e-01 -1.775220185518264771e-01 4.970361590385437012e-01
-1.637910008430480957e-01 -1.934796720743179321e-01 4.775833487510681152e-01
-1.417305171489715576e-01 -2.012877762317657471e-01 4.741274416446685791e-01
-2.278789728879928589e-01 -2.370946407318115234e-01 4.642173647880554199e-01
-1.210051625967025757e-01 -1.305748373270034790e-01 4.617973268032073975e-01
-2.308587282896041870e-01 -1.644097864627838135e-01 4.685906469821929932e-01
-1.600330173969268799e-01 -1.554426997900009155e-01 4.648831188678741455e-01
-1.990392208099365234e-01 -8.949159085750579834e-02 4.765280485153198242e-01
-2.310272306203842163e-01 -1.633479297161102295e-01 4.889896512031555176e-01
-1.932947337627410889e-01 -1.921534091234207153e-01 4.699185490608215332e-01
-1.656010597944259644e-01 -1.681996285915374756e-01 4.686539769172668457e-01
-2.523280680179595947e-01 -1.374404877424240112e-01 4.599938392639160156e-01
-2.437694072723388672e-01 -1.415390670299530029e-01 4.651862084865570068e-01
-1.427490562200546265e-01 -1.636575460433959961e-01 4.659277796745300293e-01
-1.612779200077056885e-01 -1.453847438097000122e-01 4.920443594455718994e-01
-1.648757904767990112e-01 -1.578766852617263794e-01 4.944416284561157227e-01
-1.988161951303482056e-01 -1.049006283283233643e-01 4.693969786167144775e-01
-2.116596996784210205e-01 -1.363330930471420288e-01 4.775620996952056885e-01
-1.554189175367355347e-01 -1.669191718101501465e-01 4.882435500621795654e-01
-1.850224882364273071e-01 -1.270397305488586426e-01 4.726521372795104980e-01
-1.126945540308952332e-01 -9.784335643053054810e-02 4.494310617446899414e-01
-1.980972290039062500e-01 -1.099730059504508972e-01 4.690435826778411865e-01
-2.573165297508239746e-01 -1.093183383345603943e-01 4.610133767127990723e-01
-2.252312302589416504e-01 -1.276626586914062500e-01 4.794290363788604736e-01
-2.332307100296020508e-01 -1.641209125518798828e-01 4.691061973571777344e-01
-1.918497681617736816e-01 -1.063656583428382874e-01 4.663375616073608398e-01
-2.223298400640487671e-01 -1.896673887968063354e-01 4.913628101348876953e-01
-2.128975242376327515e-01 -1.829716414213180542e-01 4.739280939102172852e-01
-1.631980687379837036e-01 -1.622278988361358643e-01 4.735683798789978027e-01
-1.652283966541290283e-01 -1.668398678302764893e-01 4.640516340732574463e-01
-1.442374736070632935e-01 -2.140312343835830688e-01 4.739550650119781494e-01
-1.921106576919555664e-01 -1.771141737699508667e-01 4.884719252586364746e-01
-1.746375709772109985e-01 -1.063850373029708862e-01 4.911674261093139648e-01
-1.924548894166946411e-01 -1.188711002469062805e-01 4.704226851463317871e-01
-1.453439146280288696e-01 -1.771652400493621826e-01 4.732145071029663086e-01
-1.803701370954513550e-01 -2.124804854393005371e-01 4.675484299659729004e-01
-2.456289976835250854e-01 -1.689238250255584717e-01 4.817379117012023926e-01
-1.927190870046615601e-01 -1.116135418415069580e-01 4.898227155208587646e-01
-2.064283639192581177e-01 -1.357001662254333496e-01 4.696405231952667236e-01
-1.680883020162582397e-01 -2.212845683097839355e-01 4.978213906288146973e-01
-2.637328207492828369e-01 -1.356118768453598022e-01 4.805930256843566895e-01
-2.467972785234451294e-01 -1.430010348558425903e-01 4.692301452159881592e-01
-2.209694236516952515e-01 -1.072958260774612427e-01 4.729774892330169678e-01
-2.159537374973297119e-01 -1.937414407730102539e-01 4.801436662673950195e-01
-2.753648459911346436e-01 -1.092672869563102722e-01 4.607971012592315674e-01
-1.499745100736618042e-01 -1.639056205749511719e-01 4.753420650959014893e-01
-1.659839153289794922e-01 -2.117593437433242798e-01 4.665665328502655029e-01
-2.040214836597442627e-01 -1.092577278614044189e-01 4.809511005878448486e-01
-1.913827955722808838e-01 -1.337567567825317383e-01 4.664919972419738770e-01
-1.534124910831451416e-01 -1.411369740962982178e-01 4.835175871849060059e-01
-1.659369915723800659e-01 -1.943129450082778931e-01 4.775779247283935547e-01
-2.216710448265075684e-01 -1.139720529317855835e-01 4.674399197101593018e-01
-1.948726326227188110e-01 -1.805780231952667236e-01 4.739014208316802979e-01
-1.957714110612869263e-01 -1.247832402586936951e-01 4.839937984943389893e-01
-2.735143303871154785e-01 -1.092629581689834595e-01 4.603909850120544434e-01
-1.422356218099594116e-01 -2.128692418336868286e-01 4.771142303943634033e-01
-1.710562109947204590e-01 -1.053297296166419983e-01 4.887953698635101318e-01
-2.249110639095306396e-01 -1.264664083719253540e-01 4.771257638931274414e-01
-2.303842455148696899e-01 -1.634534746408462524e-01 4.863508939743041992e-01
-1.857391893863677979e-01 -1.102425679564476013e-01 4.822982251644134521e-01
-2.380684614181518555e-01 -1.919981837272644043e-01 4.832141101360321045e-01
-2.156762927770614624e-01 -1.284836232662200928e-01 4.655083119869232178e-01
-2.351052910089492798e-01 -1.699079722166061401e-01 4.808430671691894531e-01
-1.834342479705810547e-01 -1.028307378292083740e-01 4.664911329746246338e-01
-1.547904461622238159e-01 -1.647419482469558716e-01 4.782698154449462891e-01
-2.494592964649200439e-01 -1.164756789803504944e-01 4.575058817863464355e-01
-1.670323163270950317e-01 -2.117419838905334473e-01 4.910249710083007812e-01
-1.805620044469833374e-01 -1.195447444915771484e-01 4.588871300220489502e-01
-1.900781989097595215e-01 -1.830212473869323730e-01 4.665133357048034668e-01
-2.021291851997375488e-01 -1.327363997697830200e-01 4.915835261344909668e-01
-2.765698134899139404e-01 -1.037933602929115295e-01 4.649479389190673828e-01
-2.211396247148513794e-01 -1.185281574726104736e-01 4.643635153770446777e-01
-1.698148101568222046e-01 -1.960783600807189941e-01 4.769595861434936523e-01
-1.722853332757949829e-01 -1.425327658653259277e-01 4.654854834079742432e-01
-1.708454638719558716e-01 -2.075288742780685425e-01 4.733397066593170166e-01
-2.499434798955917358e-01 -1.704738587141036987e-01 4.836724698543548584e-01
-1.802272200584411621e-01 -1.995498239994049072e-01 4.748599529266357422e-01
-2.063955068588256836e-01 -1.365953534841537476e-01 4.923124611377716064e-01
-2.284608036279678345e-01 -1.964494735002517700e-01 4.904615581035614014e-01
-1.693500876426696777e-01 -1.193517297506332397e-01 4.749123156070709229e-01
-1.646457761526107788e-01 -2.303106784820556641e-01 4.768593311309814453e-01
-1.674166470766067505e-01 -1.174813956022262573e-01 4.775891602039337158e-01
-1.746843457221984863e-01 -1.451584249734878540e-01 4.643740057945251465e-01
-1.583330780267715454e-01 -2.004164755344390869e-01 4.697718620300292969e-01
-1.568286716938018799e-01 -1.925462186336517334e-01 4.805124104022979736e-01
-1.709820330142974854e-01 -2.205793112516403198e-01 4.872726798057556152e-01
-1.842364966869354248e-01 -1.406217366456985474e-01 4.626896977424621582e-01
-1.879214644432067871e-01 -1.014675050973892212e-01 4.941118359565734863e-01
-1.692523062229156494e-01 -1.033723354339599609e-01 4.904877245426177979e-01
-2.624913752079010010e-01 -1.086305603384971619e-01 4.607769250869750977e-01
-1.588250696659088135e-01 -1.676699966192245483e-01 4.750627875328063965e-01
-2.055114805698394775e-01 -1.336528956890106201e-01 4.680278599262237549e-01
-2.067478448152542114e-01 -1.072213202714920044e-01 4.797317087650299072e-01
-2.327475845813751221e-01 -1.714830100536346436e-01 4.663778841495513916e-01
-1.682843118906021118e-01 -8.557070046663284302e-02 4.673049151897430420e-01
-2.306946665048599243e-01 -1.637302339076995850e-01 4.892543256282806396e-01
-2.573598027229309082e-01 -1.332850009202957153e-01 4.765364825725555420e-01
-2.205193936824798584e-01 -1.280616223812103271e-01 4.678217768669128418e-01
-2.060703933238983154e-01 -1.890303939580917358e-01 4.701531231403350830e-01
-1.625073254108428955e-01 -1.607111245393753052e-01 4.779115915298461914e-01
-1.987400501966476440e-01 -1.184212118387222290e-01 4.790459871292114258e-01
-2.430011034011840820e-01 -1.667989194393157959e-01 4.681614935398101807e-01
-2.228254675865173340e-01 -1.704071164131164551e-01 4.746816456317901611e-01
-2.496978491544723511e-01 -1.184874922037124634e-01 4.693000912666320801e-01
-2.226248979568481445e-01 -1.708412766456604004e-01 4.757024049758911133e-01
-2.475667148828506470e-01 -1.690255403518676758e-01 4.895299077033996582e-01
-2.730031907558441162e-01 -1.278601288795471191e-01 4.564347565174102783e-01
-2.071952372789382935e-01 -1.363900005817413330e-01 4.655539095401763916e-01
-1.704419106245040894e-01 -2.181248515844345093e-01 4.678147733211517334e-01
-2.557705640792846680e-01 -1.697634309530258179e-01 4.737884998321533203e-01
-1.040375158190727234e-01 -1.035911440849304199e-01 4.464569687843322754e-01
-1.332070529460906982e-01 -1.558378040790557861e-01 4.725151360034942627e-01
-2.462521940469741821e-01 -1.687953174114227295e-01 4.872911572456359863e-01
-1.737476289272308350e-01 -1.339953392744064331e-01 4.621272385120391846e-01
-2.264617681503295898e-01 -1.760150343179702759e-01 4.755066037178039551e-01
-2.140164375305175781e-01 -1.186711341142654419e-01 4.733981490135192871e-01
-2.300360053777694702e-01 -1.709447205066680908e-01 4.666390120983123779e-01
-1.582455784082412720e-01 -1.591766476631164551e-01 4.780350625514984131e-01
-2.378216087818145752e-01 -1.241868063807487488e-01 4.664731323719024658e-01
-1.690887808799743652e-01 -9.599976241588592529e-02 4.739289283752441406e-01
-2.213223874568939209e-01 -1.202052310109138489e-01 4.635228812694549561e-01
-1.580199450254440308e-01 -1.556757688522338867e-01 4.711068272590637207e-01
-2.293328791856765747e-01 -1.845328211784362793e-01 4.698967039585113525e-01
-1.362340748310089111e-01 -1.623973101377487183e-01 4.704548120498657227e-01
