0.3251273590702296,0.4901468286921715,13.341082573100504
1.262904827813759,0.8343002799692452,0.24373495467625073
-1.1077229266009314,-0.3509304506661076,0.1366215987096783
-3.375490929146105,-1.500716003768026,11.543000315090532
-0.39502455766268735,-1.8090411072511148,0.16302594053046174
-1.9536042741109894,-0.1857290422001766,11.368673216094308
1.1940782356980664,0.3328304353982108,0.20832298280768985
-1.984715265685899,3.8878499399870634,11.367716084405806
0.3995195711639928,-2.4167909536939782,0.20225018445871346
-1.3957645691100775,4.201202327772963,11.310236002168669
0.7864188681619495,0.11114305609856877,10.83008783771226
-0.37654063429813944,0.4293172026708637,13.422277983940482
0.6286534126395942,-0.25215865817097227,3.0848952696617395
0.6207944307278968,-2.2560656685675724,0.2685433333887846
1.366793498135301,0.8703125619727394,0.41326155882619575
1.2090759494596603,0.12388957697751596,0.180805622135684
-0.2603637157529469,-1.1551848468056058,0.3336443538558477
-0.6247551947954321,2.135958206928041,0.4010933041188216
-0.6709927872952999,-0.24486700677594597,2.41235002581359
-0.9236017101972837,0.3850977994416434,12.95689565315633
0.9788678505188952,-1.4170883473533853,0.3616699395550441
-3.2803541577452404,-0.3277382110848538,11.53520556259694
-0.20265491933066393,0.4094656874694207,13.328110043784324
3.6637813275626425,-1.7468537211047788,11.984345836073295
-1.8332713367148397,4.040283122171236,11.277422747757647
3.4051492380702957,-1.9615886044386919,11.627840959540826
-0.843220368705902,0.4969905225111855,8.545383117688987
2.4297159731250573,-1.6783176468969034,11.262019040711413
-3.566913621446452,-0.7596024561344815,12.05358537738681
-0.13153962704154054,1.424438436367141,6.466533885170206
-2.8164579780112535,-1.0739501095982713,11.430234869712892
-0.7286430039102983,1.8084026336093877,7.979111294797917
-0.5161611094824686,-1.9286074811837828,0.37261799364531456
-3.685146984612315,-0.8912932710532927,11.927384225019175
0.2113710814901304,0.5496542084452635,13.028810812008881
-1.0380374305840867,-0.3112309886129413,2.8964580881120914
3.8303979314849794,-1.79889778186313,11.264950374834795
0.9458415179474711,-0.34280038094797016,4.308142955073773
-3.077927124865921,-1.4896296761130383,11.139589186063498
1.2416584944304025,0.5846275769016503,7.954061419984447
-2.5097004874684603,-1.2087728783040967,8.105037381850774
0.43601229147656595,-0.482974376100735,12.343481477276303
0.5733130451047559,0.1322473315006602,4.548401624594275
-3.5638325302985194,-0.7429029282962523,11.997339686249358
2.1352513839530785,-0.9399946278745077,7.6992246942129
-2.344188743092665,-0.9684400957115823,7.827253494514466
-0.2087046763857333,0.032327921610479905,13.560300211305378
0.08143147695014591,-0.10003127845713408,0.19270528420312322
-3.7590122513227464,-1.4198449362611187,11.670831483315723
-0.2501561917972247,-2.396827586591667,0.32897982750842336
1.477425555578458,0.3273664519226269,0.1688107847809766
3.635889806283334,-1.4943871708648784,11.335084362471662
-1.6441895058680898,-0.5346376958437355,4.433198515516404
-2.0865884758384983,0.6640467741000512,0.25991324480468003
-1.2063023377335997,-1.1147209345150786,7.0633852913394595
3.683841739380485,-1.857368874175407,11.824498477986284
-2.0779910768217533,3.9333750992680576,11.3711525827865
-0.6343355933166468,1.8389699640034105,0.4374978288877599
-1.6579853267949654,0.29333858561168963,0.27984230294914364
0.5685603054363817,0.5720959147240592,12.614256690033454
-1.9237986505135962,-0.4198580808353453,0.2506522786095646
-2.0359653615746414,-0.7190779427483578,8.458832631124043
1.4925552295369888,0.11584558984501796,0.15662611448451041
0.3643709965911257,-1.5083817945319593,0.31258866165440835
-2.296916122073684,-0.7880011782238134,9.714402754547688
3.8437474537502996,-1.537194168430598,11.433309111234419
-2.000222049229745,3.8953149641310123,11.345141435133636
-0.5261061339257451,-0.13788569120383184,2.249184804940611
1.5130098405635932,-2.1996580765066382,0.24266854459023
2.0623271715332594,-1.0836566963351664,0.27209844314470566
1.023990557408526,-0.44766594582240643,10.067465903176616
-0.802321830220672,-0.16312784953177528,10.53089714970528
-1.9049936100454903,-0.6493386227069627,5.721654645365377
-0.5903898059467182,1.855311259401735,9.732574949980215
2.355320943825237,-0.4174203218038309,8.73995454963346
1.1167758938679948,-1.235592340477547,0.37189352911328455
0.9119516247899146,1.976588794146957,0.27734038775395736
1.1233389977348665,0.8745530790370163,0.2441012498653582
-0.4178486832306332,0.4742534160680441,13.540011337777619
1.417156791332047,-1.2475145252292008,0.32403495366426244
-0.6412257157250918,-0.7759452639953288,7.143231904810492
0.33451392170060884,0.16230412667595703,4.520297993374583
-3.457676635356038,-0.4399712015943239,10.828965114335565
-1.7678065026866565,-0.49037093980651514,0.27641457756791227
0.029371326645015263,0.13151497750305474,0.08093010422777679
-1.3815315794688035,0.7577700009489949,0.28684387791190963
0.03845066269580992,-0.021693350027109697,3.4947398851372373
-1.5755853424203132,3.680269608043367,10.835523332334091
-0.3956919369238441,1.1178221762665357,8.661156135027737
2.891987064863571,-0.4709050063943996,10.37030014002188
0.3623935220669865,1.1125943943296916,0.2722642580334227
-3.6892349140135234,-1.0577002772104103,10.856678520527694
0.15284668618066172,0.44703281050224053,9.392070305165989
4.017901498130288,-0.9569413148172051,11.509895398978204
-1.7882469214250247,3.933150160230364,11.87341342407574
-1.8024445985882709,3.8674845892000214,11.048554943852707
-0.36182295793879293,0.6812615115909,5.673610071997363
-2.5881816872225465,1.1335499190288443,0.03308844859767824
0.2903141581417753,-2.2506026907795533,0.258472697534476
1.4269391397970945,0.10522100056971276,0.16900694426878576
-2.489728667344437,-0.4985052152150337,0.11356263668205614
2.1734640188868584,0.9521336107099946,0.4463490927674466
1.3621636501970869,0.7288823078935474,0.26553796782224204
1.0329923727967547,-1.4236225951233619,0.3619773277267522
-3.494746094079474,-1.76550538901094,12.119320345246482
-0.29582565474437544,0.7357268325137959,5.660818006260985
-0.7878850548705624,-0.32785685901136563,0.13205030630156683
-0.029303920413550955,0.801227610764583,12.656753769992743
-2.642764186015363,1.2442110811028742,0.017581815029080457
-1.4953187615240506,0.8270265239014073,0.28846090343991937
-2.4720152615896587,-0.8172936117967614,11.102581577090145
3.5332163117443347,-2.0591804034136443,11.542339705599236
2.2335201620428657,-1.2578969681841792,0.19760911489804434
0.13180500895066846,0.3159766108818419,13.021169497339846
1.5951878385759513,-1.10059534510398,0.28731571735542216
-0.7062745272878601,1.7245402973457207,7.549805629687774
0.008927978452886806,0.0063865665428816925,11.983587567394473
-3.1494254831752544,-0.9339934702684737,9.328501010387
-2.924128554691162,-1.4285999805193605,11.286106108421237
0.2563838971227435,0.607184539350668,13.035962593520022
-1.023698370859092,3.9481033601417126,11.07026845902218
-1.262010115576341,0.8905971125085002,0.16251945245562874
-1.6475847254746048,3.834452172982283,10.446842069508925
-0.3520273778126638,2.811028413491912,0.22379244284899874
2.0330399844293296,1.5491731359143073,0.4226645362914191
0.3719716947271411,0.300124791763384,4.432997717896336
1.9974164530090002,-0.771010000249259,7.372538687251144
-0.15642178860738673,0.05479220179824697,13.663942465037108
0.09929688633380061,0.02674804034656466,10.213821281626155
3.50174379840763,-1.5632529485623792,11.250620722751759
-0.14815509095486862,0.7677578755360792,13.055419158614432
2.455115842272873,-1.542450843931151,0.057460331762253895
-0.4049847953382804,1.1288081393394382,8.607612044083284
-2.4817082249711864,0.5427846418426618,10.048021871967144
0.18575381528126195,0.04698359621346792,10.266938604264716
-1.2952139372159144,4.1721080653797635,11.550862597707058
-2.75387228353933,-1.4744185944545283,8.545291570114005
-1.433199922800437,-0.5075076876192735,3.7432708469522447
-0.3738038858190341,1.5330162744787639,0.37423772589823395
3.592719709090062,-1.8121209249399652,10.971226642282808
1.2033874564796239,-0.725737172273903,0.29498913813849725
3.891956823790373,-1.6046080987054565,11.303699083658476
-0.4191379315947786,-2.55853227872125,0.26220431375754677
-2.586154549467683,-0.8569456381844527,11.263696225996298
0.10703944404377524,0.3513935347175754,12.791867961761929
-1.9883776865103633,4.118405138418096,11.08725345913818
1.6439483580383363,-0.6262286757705351,5.873089756037725
2.566317908133649,1.24153213006629,0.3301181760672175
-3.4045431892280575,-1.4979633756579869,11.576401960297286
0.3809733898347355,0.21433706497099328,7.09917872967765
2.4397075549319527,-1.003180915741596,10.27384194925553
-0.9039494500801376,-0.3758885307818871,0.1351084383374052
1.3440012501072283,-0.9683162157823484,5.5587743795526645
-0.06761768791896813,-1.687261975175097,0.21749862836554026
-1.381959914583561,0.3792344064830996,0.2755068254168014
0.326401958451638,0.43239024614040567,13.324855594748543
-1.8262626002684086,3.9338792316664986,11.812261033074554
-1.02078040825138,0.47020953877073207,0.2611040417305175
-0.2348817548620822,0.5437821509167541,13.16527724809772
0.1034697597638011,0.2230813967918599,13.655433451057146
-1.302153368761205,4.235057952649415,11.18789759708114
3.168138908833466,-1.341695807780125,11.25445763714653
-0.16263746467676743,0.008532862412925633,13.615861953171292
-2.1748824208079043,0.1414290767421057,0.2820982885053158
0.51648909376248,-2.2471129601417466,0.25228675613358087
0.16056109031026933,-0.15533671212367356,0.06691923803591664
-2.44392234552353,-1.0402025003642839,5.963064919643578
-0.17385758394055,-1.3019722783316978,0.20275411267700225
-3.5182453162574223,-1.0795945879519429,11.12709694163798
-0.9435332579297366,2.2678639946641477,10.011985449974336
-0.5740085157123574,-2.458995513462758,0.2867946486242771
-0.05902171626754173,-0.31477026999578317,0.2904086423571259
-0.14056348096051374,0.7970232828595898,13.098409870892844
3.6427416791003298,-1.8953182363955845,11.015707301599463
-0.14111413058356514,0.4332031987506293,13.326708403601149
3.6820685514742046,-1.8813963863194874,11.544164634677495
-0.19413432219127472,-0.20193574845302997,6.182092205987784
-0.652295404988515,-1.9151096258759832,0.40454106978981175
-1.475435573366285,1.1279182446050557,0.08138918787825823
0.305898081714948,0.43183997446801425,13.394591063326123
-0.7380564079265488,0.14320910900081696,0.23375015138852528
-0.17293981730177016,0.10218081438060717,13.539813152143378
2.208994654485323,-0.8605605012374717,9.077955358810215
-1.0442379929422152,-0.2317162730468704,10.949555713234487
1.8617347282953962,-0.7629714157818798,10.07257116127254
-0.5992834800881465,-0.3486667643214131,0.13621879350510704
2.362583414926351,-0.8404706947038794,11.612882565485775
-0.19987985744880993,-0.02128463122079578,1.964678858461907
0.5351861578779274,1.5280336292162482,0.29224768303822257
0.38016325214516566,-0.08640813572862655,13.502402171908276
1.7644622260034382,1.9036062740694295,0.039393385427682
-1.4393034426389926,0.7729736079655949,0.2849273055133833
-2.170871682756504,3.685788701693683,11.359212654327035
-1.9568153097882972,3.8935146229580146,11.261077500316459
-2.2125228963883257,-0.8817625358746377,5.561281730119363
1.5441469350592367,2.0755238958646336,0.06652791225426403
-1.6156755854178486,4.162345086053708,11.60218970552722
-0.4101469699714604,2.1539369651547284,0.36502316832634424
0.39490054737999514,-0.023174600947299458,13.52525708958249
-1.743130122724092,3.8393376847695464,10.498485125745555
-1.714376197218346,3.954409963284064,11.655958025167042
2.0710502855103607,-0.6697898768582318,11.58406882913729
-2.226260562179417,-1.4417874972291396,11.280969654958845
1.2007329489127088,-1.438477186395818,0.37024112705109524
-0.2356755673909403,1.624602475128901,0.3687049966572683
0.4279182139750318,-0.714502255855386,12.895564323092891
3.752283777607618,-1.8928747850826646,11.786487843322863
-0.9808198149724399,2.900868898332863,10.216636494418061
-1.779712665056558,3.9114444324907796,11.79205590771151
-1.8286848173817956,3.820359068777381,11.227423747653447
-0.2323348202872373,-0.020252795773934802,9.781581654887002
0.10956437337254844,0.32687630156838243,0.23366619978288733
4.010172920164955,-1.6291114907842863,11.375428519720664
1.1880930542778514,1.0613303935914167,0.25724657711923304
-0.16996916037136828,0.7441217669844218,13.056242318682806
0.08465872206465298,0.4687358428042868,12.989426142016631
-3.7088635599692816,-1.211307371680228,11.83269714726003
-3.7577248262549348,-1.4121969242940313,11.5950593568282
-3.7602144629310894,-1.2735055403073026,11.562058655025282
0.9212416315458678,0.7074222123599737,11.890601214910696
2.810030338591582,-1.1058688096013674,11.058325416207413
3.5988397554534433,-1.7937513915208014,11.38284220970258
-0.1692132397453011,0.9408225140936705,0.3112399144973951
-1.8830182086949812,4.144917880946411,11.09066334908259
-1.44664760006658,4.052849513607755,11.215797474322677
-1.5380866363080947,3.753689940825628,11.14106036320857
-3.8435514416228966,-0.8610428852434073,11.688997415152617
-2.045392462215631,4.063569156509807,11.143700129303806
2.407778323184226,-1.4034749270393865,0.1183536207100841
-3.283845507121092,-1.0745219838596796,11.410750804318214
-0.0933655703248949,-1.5078299817400937,0.3793409607396784
-1.0873887817654329,-0.3656587979422868,2.931748352826002
-1.700064837338299,3.8059646690201294,11.14619527636414
-0.5771752898549161,0.6658381335397878,11.369885056740124
-0.5113104258394583,-2.1506853110077206,0.3469964661329995
-1.6849779709676689,3.5634093472824904,10.888275215484011
-0.6069006651968352,-0.733684425762047,7.0542533873583455
1.4716732568283695,1.5838728172752,0.17348319723048186
-0.8521967141383096,2.016650636033925,8.880646594951749
2.3736364251140047,-1.3113672125667406,0.16282406543436448
1.1848283190429614,0.6835710431084563,0.38591919965062077
0.0007704136499726245,0.01605697369904292,0.1111641865064089
-3.4526384576125935,-1.4275644301984607,11.572554529021257
-0.11616673637405497,0.7954916902842187,13.116767348696659
1.8151311861277373,1.0071692232864675,0.21713471357642608
1.9024148356010953,1.1699438142731517,0.1552694887681341
3.7619331088978587,-1.8739622133241394,11.538787556173542
3.768574477740615,-1.283254103086331,11.570074670663706
-0.3787210961132592,0.6929229189495263,4.577161669615443
-0.43768049711954404,-0.40849279224419094,12.884705557992444
-3.2637275701889337,-1.1137311761924094,11.467307956526783
-0.2008506825498112,0.5796649553067887,13.13679745517442
0.5397907161491164,0.629257108878694,12.670178269599703
-0.0011810315859288106,0.3078959795626178,12.800609987603753
0.07539958538978134,-0.09817638197124232,0.046416263402898686
-2.4277683147850353,-0.915087604379482,11.361291680393226
-2.4603442665526063,-0.15703282490955583,0.18415745633450056
0.2468553305601033,0.6508027272034927,13.088655911335938
0.5335295247079785,1.1670373895566009,0.2819052537893211
-3.329174933393954,-1.1596450943738705,11.51258154862705
1.0240211996866067,-1.8765767945503002,0.40241862212881363
-3.100528006447819,-1.5138675022879002,11.120415409305743
2.8982856307027918,-0.46577790739257213,10.315812449444692
3.658791315079303,-1.804843810022938,10.934586164906122
-1.7325101248887336,4.085082310051565,11.774914761517353
-1.3854715418810348,0.7371915785272053,0.2828574018956184
0.5269710140910281,-0.7133019228410149,0.30261115854005377
-1.1389685531306035,4.166018123849254,11.43028854640295
0.8478776376793606,2.656724253631194,0.12017947023136649
3.6374825694303325,-1.763479295490212,11.07725601377773
1.485749294143843,-1.2547809379261237,0.31110851717984567
3.673640056292858,-1.7036644308139945,11.90283851959113
-0.7527123790635821,-0.23783718055067993,12.96847581502372
-1.0758623100676672,-0.2567972875499265,0.24920923023831054
-3.640361579434801,-0.8870664509541821,11.591612934436515
-0.864082612559555,-0.31022801991973376,2.632200119277713
3.7676569743000505,-1.6677965467497153,11.994032455135278
1.097318504914629,0.5351426241445519,7.813470947787239
-0.9711425672283752,2.361736792025796,10.265195891151915
-0.7997033713249554,0.995959575786258,0.16380858249655006
2.2256170405666533,1.5281521386659498,0.3565143368671827
-0.7915115254792087,0.50925768802691,6.604710552747681
-0.21692200012477866,1.5789889355521485,10.283151552589224
-3.5359207408424442,-0.7839240702437312,11.456151422248663
-3.7329165418892036,-1.2131967971739568,11.520794067299917
3.910063620022658,-1.4904114726272057,11.767385568526155
0.6515857502264834,-2.148856856851509,0.3066657795476178
3.6301246928341446,-1.170952489527795,11.483179173691731
-0.03745714936834827,0.9277542466031545,12.55484034490995
-1.6725628388989207,3.8927350079249514,11.060270681261285
3.5372522834256395,-1.9005708123130258,12.01998274970729
-0.1466157969453164,-1.344745748203028,0.20663680894491768
2.65435450927239,-0.6405051121371383,9.834164793596553
-1.854611045812304,3.9009839135362685,11.90389529733865
-1.5056266309420865,2.360960954111156,10.553866325964183
-1.0478193789692807,-0.429535356658006,0.1258513712594098
-1.1634546549920033,2.3739968599969434,10.331483930648513
2.171035503151064,-1.2345668161279493,0.21337911711357366
1.3857412612676714,-0.0265933876959661,0.2051794343097882
-2.380183576065447,0.7564047024949626,0.19428864553342204
1.6464183574690816,-0.7949217843219181,0.33420877018932454
1.274856469453322,-0.8834707464524284,0.2935844426702255
-1.686924172040842,3.9798599026433865,11.644803185904948
-3.585069154856815,-1.0747515445186246,11.50873021250004
-1.6940617423465016,0.285179804679759,0.2807085542985937
-0.4782883706600166,-0.6213348540208186,6.804931099334491
0.33035483933697274,-1.1071004803129243,0.29274283888240227
0.6237541658268592,1.1879754949094181,0.30334292693643305
-1.524436510291229,3.162722371065745,10.6575475265163
0.9290900494299711,1.9651713527129668,0.28150347509672297
-2.3200743157718358,-0.7899227430946748,10.095815588935263
-0.4373674647600526,-0.3431009921293875,12.865219495506146
-3.7668177635133318,-1.4188837273328432,11.66226557115299
-0.2719675087311942,-0.06776332917108312,12.575051057150908
-0.11444466684680535,0.7757766115117763,0.31573974455518483
0.2883661814993466,0.41807924807002017,13.232152267382034
-3.418372884337699,-1.6696552192297147,11.946315481156208
0.9989840146590601,-0.4100874634644553,4.478457857486285
0.0031097894701868104,0.3193216120462792,12.858258469964364
-3.5782577085863467,-0.7820265068179311,11.455436672713718
1.2051695210403062,-1.5060357792617904,5.97849095035095
3.5675419660906202,-1.525481920112043,11.328775635688734
0.033379046794923116,0.006305207170247613,3.4653524830174742
0.9432039066672248,-0.5770060696414482,0.2847689635696688
-0.30356437995935515,0.049305567628685,0.18357582958083668
3.9224017182169937,-1.099674760281958,11.962209188617251
1.882540566356083,1.1960294784129313,0.42154537126767344
-1.4821886937900068,4.2208006757104535,10.964451059055879
-0.6515969363530338,1.6443617358257463,7.769304716682834
-0.26786877163397693,2.004644905756324,0.3778371194457003
0.934645844743401,2.1212237159099714,0.24664835738855886
1.5397050828640846,1.195777890127617,0.22003246584836325
-2.211231946297028,-1.563601915007848,11.529662368628351
-1.9142936762477738,-0.6257767351374028,5.690764202566576
1.7828990239360158,-0.7253893011977913,6.34150516674174
1.6634217026188003,1.464823594776047,0.21717167423334116
-0.38283811810514806,1.5235309216889177,0.3756020845653567
0.2284654289394651,0.8193183045895479,12.79762790450283
1.2519704752895024,0.3176012714736728,0.2008783154396181
-1.663130603084063,-0.5681587598702283,4.53668313456458
-0.5492660814540857,1.3869652602562188,6.638046201879235
0.8856622631074125,0.66781923834846,11.849601841214833
-1.8379529448229834,2.17477758673027,7.5262345337732555
0.32869259888959007,-2.0888090769324954,0.2826704965354708
-2.52057896563818,-0.9439166008178896,10.996777506040209
-0.6526854628921145,1.552759216185827,7.081351051372308
-2.110579708322773,0.2317157077612571,0.25946240348584126
-2.038890547966731,3.8804618382951257,11.332332247564162
-1.526050779237956,4.0797755299531175,11.151204193472314
-0.2397155894258194,0.42650252000625277,13.347635579943429
1.7618163884743545,-1.009733561587258,0.2942622293411017
1.8194841439845666,1.245495092054743,0.4328580826995586
-3.520384285896733,-1.0063707249246627,11.061573302344748
-0.40548839808460224,0.4077754346507426,13.421932263108818
-1.8509903401917718,0.9088753868102939,0.25663428523883036
-1.2186359279764571,3.246678909830706,10.979081912382725
-1.6446654586873946,-0.013071239668463342,4.097707855843651
2.920083709948644,-1.163655057603746,11.216572629148875
3.309038742502832,-1.4995783714297528,11.613388854293524
-0.8318351322943328,2.0780161183819015,9.444237449295343
1.8592634962389825,-1.3034289251089615,0.24517399547267746
1.8030083956875547,2.005840894604225,-0.003672280322503446
1.2295229248566508,-0.5300422571038946,10.072910897856321
3.7519982067904967,-1.8077461361232445,11.447855596886786
-2.3597128503313387,-0.7715712798247977,8.947791875252145
0.4087793870669333,-2.1371431044296063,0.27180465624452566
-2.479364647074647,-0.1503255229084578,0.18247189840093778
-0.17400668765486133,0.5010615329793355,13.338854978684491
0.009347109658803213,-1.6561726935770027,0.3596649937512637
0.12120287839522195,0.17135496291450217,13.67980548280826
0.43352226383770764,-0.5925783323639731,9.497216052960795
0.4950250607876004,-0.17531311163654417,3.2441248407468533
3.116446054765525,-1.562514340767171,10.725147189809224
-1.748500227592409,-0.4092789986749599,0.26477549378431015
-0.4623020910978652,-0.15689428759949975,2.2158140793204257
-3.3675441504731825,-1.324221156546066,11.524408003018086
2.6163316344094874,-1.0322042372838727,10.825836084078633
0.00533776168499621,-0.030005131525244255,0.20963148853417818
-3.634092611817426,-1.0528798724971538,10.998093777306563
-2.3194923007704142,-0.6822510070054825,0.20284883528269287
-0.5390349122668205,0.26915611711644605,13.003214019662593
-0.34634012559934796,-1.5177289589345677,0.20431725557671956
0.5067699946237821,1.449421582173201,0.2885749315408017
1.726050350145224,0.2576011328472705,0.08980498089766624
0.6458497810995096,-2.1864685199772538,0.2946162336944589
-0.11256226343933295,-1.5702057018584967,0.37892924265010514
-1.040765340969011,0.4180340086419727,0.26078040387019374
-1.3601079972365882,1.9197273442716285,7.2768112860444045
-1.5984764792171502,3.7948358222320877,11.140965445505996
-0.06289447046125451,0.2845663392828198,12.828539916342214
-1.2810828524029625,-1.0894081720580198,6.952225494897745
0.19623034508707984,0.7511261707880579,12.747439783512867
-0.09527539323367866,-0.49727885814409084,0.1711806301437331
-0.21343270179074092,0.6156061679455493,13.146475119079916
-3.371777982412021,-1.1367656634567296,12.160491174550048
-2.2407959182743538,-0.7614216523035489,9.232518314415405
0.5359154302037811,0.6121656556341095,0.2318122401373712
2.266276838704492,-0.8867462090285736,9.328074022629783
-0.17116034104219624,-1.330735417885816,0.34804628913386554
1.5289287869557386,1.168266524543257,0.4581035371479336
-0.03901485996400413,-0.13766981135679576,0.22833136959693057
3.8074491756482955,-1.236288535448455,11.170301972397958
3.813951472854094,-1.6680513079314978,11.228320398482559
-1.3771657255332843,4.190202823538274,11.37123596656749
1.042702679591173,0.977265100030535,0.2715396014994235
1.0426939816479033,0.10815262126081583,11.071035363754397
0.5034370283460113,1.8269275501317916,6.8651359812671995
-1.3244146751759638,-0.24151969046847696,0.25187405074367597
-1.9432483888028402,3.850161316589384,11.295678174422683
-2.2636842105336905,3.787747861491171,11.377156367993948
-0.5550891620247742,0.3180276647855004,8.15275898325697
-1.8035818562562156,3.9633633450529495,10.169976713093291
-0.6883150909465197,0.4359736526625525,12.913673146430794
0.12693008302688744,0.15089090493431573,13.624782208519948
-3.5723568502497858,-1.3548037775526183,11.993566317191215
0.9562971360913962,0.47647176066996194,7.66633486900688
-3.6875780954097777,-0.8636091795713643,11.642952617979269
-1.2925253301749366,4.210499774500767,11.074986639069051
-0.12836283156201794,0.47129663594916293,13.317720865672499
-1.8699016386685368,0.6762199234373396,0.26741302752265533
-0.4811612445362671,-1.64545679472939,0.21270021540271972
-1.9305959267732868,-0.5228470399905771,0.2635276782531493
-2.0813566591068997,0.423119530288955,0.23356948079585302
-0.4013909598931058,-1.9468438546654059,0.36110051087409395
-0.285902089887459,1.930513322139023,0.37757160796867006
-1.4476172677163937,3.4618974072424162,11.13956709188907
-1.5637786160557579,4.040958177021828,11.400777421950664
-2.0076933676757793,-0.4568506397977272,0.23993000283187893
-1.496335111617058,3.6286312079814853,11.160329270670719
-2.4357717810098682,1.1597689642388231,0.0929325403409079
0.8214343998650352,-1.3598312255492533,0.36692873974955864
0.07695093805547258,0.1898412739911145,13.312115828097618
-3.7273532537780856,-0.8540827992802079,11.697965069982082
-3.2731601445831706,-1.6772716405817913,12.026628659924715
-2.1415685751622573,-0.7001421481869099,7.5638049567027235
-3.2765379081959187,-1.1165809926801271,11.450259197802273
-0.3325316110565097,-2.090683471125761,0.08093586547293702
-0.7347220201081714,-2.338337829532843,0.34839311692655
-1.3187709908807164,4.212612334368886,11.160299213114483
1.7585862073686718,0.9467917017728681,0.23769624249608529
3.9410397273517725,-1.52301977616612,11.80420756843838
-3.228054868388859,-0.8656703319965886,11.373882855587205
-3.370352986464861,-1.039822391809411,11.73191238600264
-0.5782702588843955,0.6647575974390727,11.386053325308428
3.6281543982443165,-1.6644133016144411,11.436860293929419
-1.637344376279608,0.3919444436146946,0.28002601441390224
-0.14901362983032332,1.3876522762571095,6.462391770816485
0.9784750575505731,-1.6253302752943901,0.38350043124973854
-3.431725586252256,-1.1437441610422092,12.190485207842531
3.68723900790305,-1.8137323507201977,11.811945298580303
-2.1476050500453474,4.108181216099938,11.244814925239066
1.015975555867763,1.783166600020212,0.3383798069485666
-2.6061439071741304,-1.197399530602463,6.270358041673747
-0.7920183490527964,1.0069673568970074,0.16742076212223905
1.3169947250938328,1.032350953094694,0.44592675910963736
-1.7827727951056684,-0.5845442505585157,4.841881687077709
-0.8096532484742349,1.9710125892950814,8.580561730041826
3.8800084413864253,-1.9052952234366645,11.54034090403125
-0.10351845167842266,0.08078108076584645,7.707502608120915
0.20024516334798004,-2.1891030134060445,0.28915047684870104
3.769745061654538,-0.9999111220903623,10.730114243084905
2.435707886811647,1.1501455137647352,0.37306933429486344
-1.0559379765880796,2.0109738098938603,8.995280209752686
0.27855827505839864,0.7718723958550404,0.270263889422915
-2.180570218711787,-0.48988478654316236,7.051070905996441
-3.501553898673076,-1.3322732296424462,11.970293708893399
3.1428293604055932,-1.3428930601266382,11.2552002941453
-0.05954586434913667,-1.9283936958276402,0.41269133398788427
-0.8038714646602148,1.9155407500114605,8.474954659621254
-0.2738895585559548,1.6932148193930234,0.3719720140314407
0.9820327869097277,1.4789095513986281,0.25229274058347007
-1.7267201822643627,0.0823473175807525,3.946023821288206
-0.35293102144677546,2.9060654119614804,0.20210976694160404
-2.0746795059936796,3.833531356368837,11.366306600104123
3.9103322325618097,-1.518140249107853,11.531220810090018
2.6524168271310185,1.46948394605728,0.24691397663014006
3.2715339705070767,-1.1327887263547818,11.449274275221466
3.661651790145288,-1.6329578498603463,11.345358654045935
-1.2457582642037717,4.1816118780710205,11.529529593662241
0.9812517070494244,-1.0996834904491006,0.353519858027981
2.3155606894741503,-0.9389750557478915,9.81527977535126
0.44550486808815665,1.481712219057521,0.29679724368361166
-1.3757007982795884,-0.5353848826552907,0.04780068679810749
-0.7563990553893367,0.2184881073478579,12.597686964192278
0.5822045322298817,-1.0091274168823936,12.840002506742072
-1.8843397732118936,-0.6087437149307219,5.390929150062154
-2.308069932985036,-0.7858578794051339,9.850032596210191
-0.8970730616865416,0.42945187154026726,6.936226931363688
0.13930513011222734,0.3705536236297231,12.806036100534378
1.4360942345112775,1.6838615830569625,0.15683865130602198
-0.868699088682223,0.49221374336529367,8.574800821790602
1.6373433320194826,1.1253309713025867,0.20436237898922954
-3.5884526082903294,-1.1983518658839387,11.465015642289158
0.008744078743378625,0.088199892056774,12.791023687599811
-0.17679000345752088,-1.451778970540933,0.20553438625860063
-1.4796319751584996,4.177029001751675,11.021605990759475
-1.7263718467148352,3.5849265786628957,10.911858671177406
-1.2510079922367474,4.23386808319253,11.60375805904594
-0.2556533689527618,1.5763457230560525,0.36482784881447755
-1.9566620820638339,-1.2613540109090162,11.66727033247305
0.6834248810762494,-1.2895308999715671,0.3775047639815323
0.5595381857875747,-0.23401553639457015,3.9104976061771692
3.5220177633982264,-1.6498256656086119,11.189855816394772
-1.8917812130509521,4.103144694359132,11.036611262008433
0.060007268590148044,0.028009554598701275,3.492832970676216
-3.5194163856957608,-0.7645296960142832,12.05681076037451
-2.5165402904004663,-0.8133945364779767,9.05504766834277
-0.396024119325154,-0.09563383663813285,2.0869163118878356
-0.35915608538005217,0.4215302173911213,13.376466424194287
0.02666420360383151,0.025083899717115374,12.528260676829793
2.8667963061505732,-0.4825863593882379,10.247122005167057
-1.648905779932871,3.940295490645673,11.468926238658703
0.11437979913567363,0.019724054347912953,0.07716262353795157
0.36533023059617525,-0.4431313857758395,0.06258889405472166
0.3059969151803325,0.22732976365132337,0.17680681558133388
0.643511260748011,0.5757580797693961,12.616082955563149
2.4148459471870165,-1.3558924561246029,7.99187054078875
-2.6933702331705796,-1.4212980142016405,8.418795089461462
0.21482476163569159,0.7944341112690847,12.81169631628288
-0.4048192603292071,-0.0989018903156173,12.706902102657704
-3.688028038121253,-0.8598252592270396,11.632679386795191
-0.609929884187187,-1.7394391211966664,0.4082468508358915
-1.5915090793037712,-0.4171782730861755,0.27337591327017047
1.5627514851352313,1.2672397723804198,0.4765870302835863
0.7512780024956995,1.7992740522938404,0.28988635970647464
-1.5351609236335442,0.47182722198805804,0.2931543591497136
0.1408776436033372,-0.19218433509544158,0.19262553453198353
-2.2477047695706847,1.117357661989538,0.16265815893979263
-0.4418052089733394,0.16145193561294124,12.138791865461013
4.011250165438668,-1.1814401724587489,11.79951079029752
-1.6059216860976377,3.747014671874025,11.061747748883702
-0.2135864387488407,-1.2194429085929863,0.19860377821962566
-0.2923655408595484,-0.08593745478638305,2.072304684201239
-0.5220649027297364,-0.09845714620618662,0.24576010534645437
0.008585616188653777,-1.650499663278057,0.35945100853295164
3.29014787002613,-1.690712973342988,10.854382922903243
0.48562116313290393,1.8842929459929896,0.31521646776864953
2.197320881891459,-0.6769210255878036,8.389511313624897
-1.9681991112850676,-0.7114784444945432,5.341395252407758
1.1312480297912924,0.11284208614744434,0.1804074191420087
0.807704386684242,-1.554110739926138,0.40804976285940087
1.6230537098211386,0.15734944564882963,0.12316792049984782
-0.3904516102712961,-0.845596354692874,11.961442571824142
-0.8539816434053333,2.0320027052099707,9.046749222906623
-1.4976755299398563,0.9229683247727902,0.3091227670089649
-2.264742227416651,0.6653480609163451,0.24297848486990264
2.0406793080622823,0.8838660057966886,0.4605146829731366
0.03974831186912123,-1.6817303111682982,0.3521413472697666
-2.107026527185172,4.030837714194883,11.242873631351083
0.060717326359272045,0.16246711993297847,9.116797898526736
0.06431083847058366,-0.43258111732288773,0.20691854638729917
1.3263725030506532,-0.4549556012139293,7.629994065651223
2.1004132438553866,-1.0316160513678516,0.29154259404363947
-1.0620323157346303,2.6174247923893,10.590110979114112
-3.4610582393754408,-1.6758862844211007,11.942532327252401
-0.5986662308979502,2.227961795093182,8.537107956501401
-0.2204268540400231,0.7294440522907766,13.089645288036415
-0.7419622103438014,1.8465030352455223,8.128621057032369
-3.5769629941588392,-0.9834015417700389,11.97454741725165
3.6335409307823783,-1.3267848757020917,11.24981035942421
-1.2703467693025068,1.1337032989329996,0.08947193201565999
0.2968357405590806,0.4725472867292585,13.340256685567907
0.8177655193154063,1.8150286975970547,0.2937476953440126
-3.3731896383091624,-1.1640655557297537,12.181822205410276
-0.2843123485251864,0.716937251446925,13.159302280655432
-0.014778441277036201,0.08209740519822856,12.702351163592477
-0.2409761510348086,-0.03788754690152925,12.571828219884463
-0.6816768304743432,0.5502465953979295,6.2220540475382435
-0.004566542142933879,0.037558567124245844,5.065800784971353
-3.895932560447107,-1.2429376806761736,11.638534754182606
-0.9360724083442294,-0.48469773347075334,0.1388784642035069
-3.580105975627282,-1.015481357461612,9.53520349779657
-0.0989700749028361,0.28271783730870176,4.985045556507779
-1.459206351159724,1.1403104430308924,0.07569035803870722
0.016520263095269532,0.1251557068240196,9.084195404958907
2.212152047882146,-0.7331684446868636,11.608482385916682
1.7754559975265192,-1.2602643552870358,0.26132916236870585
2.4049312037291357,1.4734054040328681,0.2977534093722706
3.770828588782776,-0.7120829899920446,10.978486460989641
-0.9216220045645355,0.5865467192454131,12.98511445297618
0.2800521800980521,-1.383479880650119,0.29664425788043847
-1.6499577514601336,-0.5444743680861184,4.413436627612746
-0.3916651213265814,1.108576833943231,8.664154062404059
1.135876837022455,1.4005040637315767,0.22208673067110654
1.0928867917485108,-0.707707505315152,0.2869272183402945
0.4387080653386528,0.09271018209427799,4.563210378381846
-1.966559358375023,2.274629976905959,7.613330700492849
-1.96724964523934,-0.9281187714968699,9.71551300149185
-3.579668391620661,-0.7808324084219638,11.456299333047834
-0.3128631070675861,-2.1800339629268466,0.3472669926944197
0.9976050047011795,1.5231637416271135,0.25338766175300675
-0.7531680893421212,0.500097545728668,6.527568636222011
-1.6359298835634166,3.251422205893537,10.649375121207957
-1.9542543299341322,0.8608337411897261,0.23908110926567638
-2.2068012273019324,2.025545321356999,9.281222157288601
0.28036847404688015,-2.551042630715065,0.19233121760327218
3.6476887407054903,-1.8991908124885324,12.116285713181654
-3.541850655364587,-0.792468801542182,12.090059531327741
1.7466025568823382,0.07629471615096381,0.11040206723954268
0.014049540954108848,0.03951581224325865,0.13302518517054418
0.19534032208208468,-1.0407274091786365,0.2591764070802301
-0.3277016930188911,1.391499445576501,0.36047523958038696
-0.2396146627135037,0.7950132694863735,13.11803799626996
-2.5148853977524217,-1.213450094559335,8.107459430772652
0.1735934789432987,0.2438686804103157,12.893267801509436
1.4950284959040845,-0.7725283785441491,0.3205725018390392
-1.5015409397890878,0.39394955227178474,0.3127589540488301
0.3141539816706629,1.1162620311884082,13.092604049742064
-1.4013005707179176,4.137456044931806,11.289606912259257
-0.39068665717913176,0.4926623405633609,13.445230306157988
-0.30960279177633054,-0.48474958938534585,2.202267879108612
-0.9882257475782416,2.885907114532894,10.201398977619828
0.25608963284114084,-0.3123076155323837,8.799746513854728
1.1377835705670702,-1.871797019462293,0.370571585840226
2.137875935968646,-0.8391857417062033,8.471068827143434
-3.137998500395069,-1.6455918845605488,11.992244087177871
1.7111258259879476,-0.6370926198978821,7.124687120135213
-2.110798328435268,0.274553865871996,0.24868091275351886
-1.1324264906764256,-0.3759710019564942,3.0088184033888083
0.2297487562697635,0.25762878996842453,4.268837323206389
-1.7575044849139159,3.936774962535452,10.257772853743145
-0.4942383111352298,1.7750584070243813,9.87120047116769
0.308603627608075,0.5177559462893943,13.450183384959866
-0.35188423525701734,2.706507197737868,9.138441064804272
0.2939673943229406,0.5875745063775976,13.118624726594506
-1.9853429331617503,0.9376430270017689,0.2321875295223531
-3.0719662280379496,-1.0838367141406302,11.62463203241566
-0.20079310652308585,-2.148307100649656,0.09091848390413126
-0.41827001252154977,-1.9587222826199384,0.3611601052629499
3.104626487769335,-1.5319862662139907,10.684573230335912
-2.066890467922201,3.697422187772248,10.543144324967663
-2.3328087356052203,-0.5564282225980768,9.994836115264654
1.5794906501700317,-1.601835353672178,0.39332536880755037
1.5756325191273661,1.3678608707295674,0.2426382550409798
-0.8615270397393082,0.3483972595908217,12.977304380809912
-0.9669930783167477,-0.3253266946599125,2.7400818737552637
-0.2008333392017625,1.3625723888130152,0.3472329132193278
3.9517553531212326,-1.598504208176502,11.313090969951325
-0.43945757149019377,-0.3876246482153657,12.75317522784804
-1.292075955387869,0.46772709833647597,0.2952591790345104
0.9499538362954054,1.367092404389043,0.2451892951136459
0.8649389039042417,-1.7007078180455464,0.4226036902882507
-3.336266237787167,-0.3298556388842743,11.59396221087961
1.8186917158515885,-0.7487629267562235,10.073277377028226
-1.513797482656965,-0.33156781560974746,0.26257623517806444
-0.10918235704034579,0.04015524719352988,13.593882263970528
1.596488620064255,1.4610731592514292,0.21213215062612628
1.3286206955674296,1.6372806908376105,0.18474748707042363
-3.6578454447574593,-1.074205727614492,11.59880411670126
2.1025075638127313,-0.8472296312693862,8.213428062074406
-1.596272207747593,-0.5347541729538681,0.30275083460875596
-0.4239263513881262,2.855160964062844,0.19759443572914945
1.8719315633511042,1.9881143716495009,0.002084185610926926
-1.9584874575846782,-1.244311355774581,11.650534875310422
-0.7458057672315586,-0.2960437761601909,0.12977888194093207
-1.6061184304839273,3.252323527710123,10.649443766410487
-3.2832728534435915,-1.125353554023786,11.832692544549445
1.389445603105882,-0.8363906753626776,5.469755403529915
2.1063464029240686,-1.4387679520497465,0.16979959726736016
3.424700196404573,-1.968517643507294,11.63855947544815
0.14704442873664955,-1.5212053385181203,0.3140185022513474
-0.4193631735325194,0.9793471203715917,5.966934843653842
1.4082058845358087,0.9291228039889612,0.2427316801706571
1.8870226285963951,-1.6406272159891062,0.24352572400229616
-1.2861364914848477,4.2410183848020075,11.081600178147685
-2.375777360040641,-0.011196354534201106,7.27040935422231
3.934661913442288,-1.1742017068297639,11.778570714693874
-0.28943521871984357,1.8628975749769388,0.3782861780204345
1.2428657233609526,1.0164481381869255,0.25449152039368106
0.506434836054506,1.6033372185231562,0.29801461764024595
-0.293561240296856,0.7305150906458733,13.141186186618024
0.6048561918989906,-0.11097373920560862,3.190971051049266
0.4087070809000846,0.9942281564134909,0.2627156216368479
1.5797194668041843,0.7775279044619582,0.28210192147973895
3.5418450437909685,-1.7915102098914057,11.979448200328836
1.9845799872084386,-0.9973028362911415,0.30115237580201987
1.3878712099114134,-1.2362489641075853,0.32784771753465675
-3.4250268053201216,-1.5538492684479868,11.529201316887178
0.552733145025446,2.3258049482131513,0.28208452922450206
-0.1426487416964965,-0.8019507350764195,0.3143422049759893
1.4930781259003547,-0.5524608793354531,7.398601451129938
4.007700058510242,-1.3517235264019227,11.286383583446511
-1.634324380449315,-0.6825624613303922,8.933863628102166
0.46454051817204944,-0.1261927439040718,3.3008846551528173
3.773779228490119,-1.2102646271102266,11.192615745562183
-1.6827273840397126,0.583973571549587,0.28188441193654257
2.1748519731796803,-0.8530846558045051,8.82208395562948
1.527903151686148,1.3052263865918625,0.23076784472813927
1.0230889307088553,-0.4484225088568488,10.07859254942288
-3.761686407288728,-0.8993227699608902,11.949406459970703
-2.279153041390235,3.705145763280372,11.356685017105287
-3.582701286382496,-1.3857559074647272,12.089739277483167
-3.6538205456049266,-1.036487776865785,11.633118362700806
-0.1463942016973393,0.48626662473658916,12.74061885975576
2.3269018617107244,-1.2620313449962022,7.915455794992593
0.04889814369354041,-0.03383624802469964,0.20295843277727593
-0.6840428465957341,-0.1628103067223018,1.2022452104675183
-3.304008273870846,-0.37767533612135984,11.617423346911181
0.6453098877408567,-2.1277491226555445,0.3095523356906584
-1.0686695680641762,-1.229481094772521,7.310866478339008
-1.664138891600324,3.764784352877833,10.64976100175797
2.0697224868321387,-0.842062182609011,7.87922746176892
-2.0229709695564617,-0.6896718930959783,6.579316872161357
-3.2451845624548206,-1.1422129107609962,11.542819021862453
-0.3967957787698485,0.2394421721025634,12.999218172462403
0.23193993182846293,0.5623693849497484,13.008558215861528
1.4851569783375054,1.0972702819165676,0.44724383309919613
-2.2041403174873166,-0.15057230760976448,0.23620457608523254
-2.079915706809329,4.275319411545217,11.154621890373958
-1.4508135655494396,3.6356457364352375,11.22131574915536
-1.7351924929964113,-0.6700029519898425,8.77507303261821
-0.2029803727608161,-2.264022648611279,0.3604156487172082
-0.2965601777232253,0.19855370651552295,7.876101315694525
-2.497209947149412,-0.849253664746993,11.223397681730006
-1.854602986606474,4.031884855835459,11.056763294273736
1.6145446751351702,0.6177706786008115,0.4703405318722381
3.5391274239007977,-1.429020992896605,11.384930259113776
0.4273053799038115,-2.085468132949024,0.2818267184548798
0.9694882452514237,0.10151675090256303,11.041335129136165
-1.7047618939734648,3.3215053758103372,10.636322209109068
0.2976221374961965,0.4707484897848285,13.386054170870928
-2.076137342427903,-0.09643843943046335,0.2675474407586419
-2.026720712422233,-0.5416649042968881,0.24917100577765705
-0.6988943223241697,0.7644160320400297,11.560556522812934
0.13103039403772246,0.7104963285768033,13.284239958188625
1.5896851454176226,-1.7311571177872414,0.35480565472499404
-2.310174084434961,-0.7957129424923576,10.460794995302985
1.1650349888070215,-1.656478456737281,6.142217750366585
-0.3979051758687562,1.4722586662324804,0.37779961910469995
3.826039462850848,-1.465369084528969,11.422433830290364
-1.720679529290376,0.17978152711747838,0.2968534493110624
-0.8909480712754144,-0.43584272200960184,0.13740586120681378
-2.164958920017441,-0.5119902707133219,0.21348600719094757
-1.874550850817458,3.8843064699715626,11.841767913206306
-1.5730385682185313,4.133232722972534,11.511573761770872
-0.150903784607507,-1.2741814573884795,0.3467922447193114
0.2202833352751103,0.4927075049799966,13.032833507120095
-0.11513582305059489,0.7341624246971821,13.105198783054638
-3.197674001732605,-1.748861520389261,12.050433751480714
1.1791677190251284,-0.43474886853571937,4.703435551707366
-2.0178725246339897,3.8601384480725773,11.319571557545455
-3.5753719696769224,-1.4124805255842632,12.001845885893747
-1.9753131959688288,3.9082262424821264,11.323107157201093
0.33389416649777215,-1.4003252008848261,0.3038360646133814
0.8053432166483288,-0.3317063682752671,4.20147331464756
-2.5225927451337964,-0.6748904741572529,0.12752812995577956
-0.4618684876571695,2.9649615333215236,11.19398991211199
-1.3866352101054233,3.3286235610247186,11.144714541220274
-2.483798354482891,-1.0960460054958256,6.083515494745185
3.863843526031964,-1.9027691032589187,11.593773445012474
1.8328589514281108,-1.4181109721677023,0.2458118711747347
0.5976976210465083,-0.21831352302042,13.083342922804341
1.4505758260323354,-1.7896768770039893,0.33243560335510974
-2.457216333438139,-0.8781866670873256,11.291253235780644
1.64590515847585,0.1994228403108304,0.11437041943849785
0.002503619883252887,0.2705731391853706,12.890933656968334
-0.1389316306993946,-0.010685213923863174,1.948722938723698
-1.6974684293657556,0.3723743944478028,0.278163088690228
0.09062383472254507,0.2320603656110037,13.653781309117203
3.8102038909586664,-1.524989833992184,11.420950319834855
-0.22061071237617008,0.11046251100840263,0.22498621214058745
-0.7470198720672814,0.2899340748582427,13.05868035201466
2.858231519602346,-1.1204172237315384,11.359512976383629
-2.486511118926677,-0.6562197118819931,0.13678031023404913
1.0738566479227234,2.6106766328527495,0.09145050406033464
-0.6534931011290819,-0.6174259412031474,2.629035320756116
3.6032824919049875,-1.4442291700249854,11.310599163334018
1.4330686719293404,0.35926610406500004,0.18586846637398496
0.16044731893926426,0.5490529402846254,12.57331098790319
1.757188834194117,0.26348645077039456,0.0801378116560019
-2.4221014619311574,0.057279116747290845,10.090158768101453
-0.23897321003498467,-1.7740982127525167,0.17165380269523883
-0.25381420184848824,-0.5643736248745614,11.609371377477688
1.796851344338728,-1.5018913493683668,0.260887851958818
-1.5842531980786967,4.1787008562756185,11.564793117818292
0.212077418311995,0.4897729829334591,12.968010793839388
-2.2554982459375377,-0.768208369265331,8.910871952131695
-2.484634691516126,-1.0736134416093128,6.010705362442371
-0.31926235995147956,0.20451206340061917,7.898949323015685
-0.21817988634551716,2.00356302051279,0.382311622457041
0.8281006371048519,0.029909203120526695,0.167176501505247
1.365796012084789,1.545546287709942,0.18992182939013327
-1.034265296258749,3.8212127036197625,11.122734027295113
-0.6069293881056625,0.3970051191102155,12.878860909560853
0.5375760112872172,0.33119307730480946,0.3415511963734369
-3.2584685548837222,-0.9007249828707395,11.346908806378547
1.3808738018000186,-0.5606466002213951,5.139554773873932
-0.059220394213398905,-1.8532577185149728,0.4105157512601343
-0.3632357444674531,-0.3905001734157565,12.854642316333692
2.2501690403268513,1.29471850526611,0.3566458955311259
-0.21310159471860318,-1.7975541444903027,0.37283508013879285
0.259412220983675,-0.3182538212330706,8.758328653840078
-0.20749162390543957,0.0980923618778454,11.900955182715894
-0.13132649944211056,0.4471378632389955,13.299935859709858
-3.6662747849614825,-0.9272911111213704,11.828334640003463
-1.337962443591179,3.975371615784987,11.006315935364475
-1.0037312745616944,-0.29977654682636334,2.8130577064909836
-3.580823938288229,-0.998529058641046,9.51997527519115
-0.002961053781880197,0.45009461834100933,12.914776637022431
1.58290140683264,-1.988814961743491,0.27870900050931796
-0.04728525873145486,-1.7150363399799629,0.22173321693919074
-2.1094707697325963,-0.4019848289100015,0.2196033981118342
2.2448694404724465,-1.5783739752304915,0.10302932902095352
-1.8938890847931233,1.0887033732976645,0.2669746422533361
3.626709724350232,-1.933714295542478,12.193708760605883
0.3503750335791708,0.4316848571408312,13.376944682341303
-1.7354199352515824,3.810043101362925,10.516216838498933
-3.781015183316863,-0.9652516928602968,11.689840354372166
0.4765780952572066,0.37168972361078134,11.709676570481262
-3.7457503122472593,-0.8814658879253935,11.828714825477643
1.3345180069585785,-1.8951249232266885,0.326073701145584
0.9052692464206362,-0.3157989778898445,4.296305321584184
-2.2443203301876586,-0.8210719048427452,7.7230881354678225
3.7111441344274785,-1.0029303069682893,10.752298977173846
-2.148180714224168,0.6129381787998658,0.23106754940602015
