-2.405940356533021,0.609644398289426,0.15176256367925078,255,0,0
1.4914986426617935,0.7947869344337191,0.4203607922657288,255,0,0
-0.5972405143254995,-0.7196497133681947,7.0683267695576735,0,0,255
0.04451933348791076,-0.012533136332984347,8.377971952102843,0,0,255
3.637960996042171,-1.836303294014355,12.011759831501596,0,0,255
3.6739692604496708,-1.649132021315318,11.819810253892118,0,0,255
-1.824395602936705,3.894631154245023,11.860495312084245,0,0,255
-0.30480001630841524,-0.5397529563431499,2.2860368952058465,255,0,0
0.028138672462554026,0.019386089881980394,0.8846272712690999,0,255,0
0.4256695921658534,0.2673833203584891,0.31161749558248586,255,0,0
-3.641102939912322,-0.9045531467118672,12.120427871045536,0,0,255
0.22263757935783232,-1.7598560511646226,0.31642564531789286,255,0,0
-1.0258119317801897,2.4752239260620064,10.434176958336305,0,255,0
-1.674669707935533,0.983435391797902,0.2939374625097889,255,0,0
3.309660653206063,-1.4923466536789387,11.111446973296403,0,0,255
-0.4244735965599094,1.1757694561995082,8.554196754413013,0,0,255
0.017299438942007812,0.02276122039982391,11.275163090773544,0,255,0
3.558472501729431,-1.7668575205852628,10.621035557338423,0,0,255
1.4323280373710552,-1.8010938015698152,0.33054380008788964,255,0,0
-0.34737716888739034,0.44955935242345446,13.592418621903548,0,0,255
-1.070386853555567,-1.2294253675176425,7.326473620741048,0,0,255
-0.8830195893074834,2.1223514443197162,9.511890955990491,0,255,0
-0.001315177500581727,-0.010223134638163139,2.3149815286333055,0,255,0
-3.7349742337316805,-1.425070228365755,11.536340014144255,0,0,255
-1.166542080358951,0.8180179589295697,0.17250456629415045,255,0,0
-1.011694972314814,3.140576481680277,10.456957350607647,0,0,255
1.372719862758822,1.3218160832438053,0.2324387396167935,255,0,0
-2.0296356305935648,4.034104364373032,11.217801053802686,0,0,255
0.7492908827073123,-0.24495471021080123,2.9350773124128215,255,0,0
3.5701022258718096,-1.766561938905101,11.896010748321252,0,0,255
3.718552078704135,-1.535562739926811,11.288224933035071,0,0,255
0.5130293730601073,-0.3322850660276762,0.29070164924783315,255,0,0
3.488444999659605,-1.5689814899471652,11.629256494855976,0,0,255
-0.6675296741969479,-2.2561271498584126,0.3518756908256755,255,0,0
-0.012616684017467608,0.014302399314349037,10.050228387319859,0,255,0
-3.509093021554779,-1.5403789671112063,11.412592154129449,0,0,255
0.2702157577353519,-0.07967593929995367,3.5959081767450165,0,255,0
0.5412733238634011,1.889494146123537,6.887998430498733,0,0,255
1.874487023595825,1.2800313194900355,0.428029426307919,255,0,0
-0.35018582166593143,-0.5840557703204001,2.3543835360496015,255,0,0
-0.6382263852916141,2.6314149145440973,0.2844247617327741,255,0,0
-0.5948290559893081,0.6562230201636692,11.35557522344515,0,0,255
-3.6168050277428274,-1.189980132948531,11.473356385423504,0,0,255
-3.4348405621189944,-1.4228874721613805,11.489099312258574,0,0,255
3.96981097785261,-1.0025123471333786,11.592700675049155,0,0,255
-2.861695336664471,-1.161520620030842,11.4099404827134,0,0,255
-2.7363529568716354,-0.5378257326803892,0.02015421309660948,255,0,0
-1.9091839937026118,4.096482107934821,11.081179916758026,0,0,255
0.11331422630785153,1.5897845319213038,6.644127511517468,0,0,255
1.7347044457095264,-1.9981149977554509,0.2748827606528888,255,0,0
-3.31071943376342,-1.0290847967532013,11.455671615559591,0,0,255
1.4121890898381857,-0.5278685747523534,5.195770719642365,0,255,0
-2.241324141416257,-0.7507363230259546,8.584408632124585,0,255,0
3.649338942400827,-1.950911511699929,10.910855126566418,0,0,255
-0.5730520294450121,1.7909369662327195,0.42185470976673106,255,0,0
-3.619344244882999,-0.9468421748672118,12.17938561892447,0,0,255
1.7580761421565745,-1.5240665981516421,10.072301619984021,0,0,255
3.5906307952264527,-1.8107483172097354,12.064129187193366,0,0,255
-0.28006897854416835,0.18643239190857513,12.983635389769656,0,0,255
1.5899045792804056,0.7453462754728148,0.4377504670927172,255,0,0
-2.2677603212031983,-0.745524420877298,9.138806863937242,0,255,0
3.9124194619544683,-1.214618075081435,11.739312302381176,0,0,255
0.5461267940896553,1.4420904867421438,0.2874347987081019,255,0,0
-0.6565367714568977,0.7057102945386378,11.444676369906404,0,0,255
2.6490071827572343,-1.0147636819882526,11.580354571108838,0,0,255
-0.5758357033756546,-0.7357321189730153,7.019154968450618,0,0,255
1.8189181811614685,-0.9775021683888143,0.30352404761605317,255,0,0
-2.323782429988534,-0.8008314078356756,10.44407474286836,0,255,0
-0.29342216860346326,-0.08207810774751015,1.7324730866527212,255,0,0
1.8666922510915662,-1.2108001068996912,0.25413837030156305,255,0,0
-1.47501007783765,-1.1625278609736238,10.319885283562284,0,0,255
2.7123634478919163,-1.0643691307469467,10.979811673155435,0,255,0
-1.703147120705613,-0.8363677380964967,6.426440670155495,0,0,255
-2.8146329971049604,-0.7940594667603451,11.319128721473533,0,0,255
2.1713747633083784,-0.8448718205538185,8.477247110269248,0,255,0
-2.3454376373326404,-0.7744628556353395,10.645876757398891,0,255,0
-3.747233641208903,-1.1866167916806045,11.79365509363489,0,0,255
3.5824421096330044,-1.2708752294957169,11.267761540316048,0,0,255
-1.518833261173656,1.304274017215651,0.001576145741616174,255,0,0
-1.1049489556490892,0.7483195685571737,0.18285517117517294,255,0,0
-1.3334625292665658,1.4377277794586498,0.020088746217917886,255,0,0
3.8080613208696965,-0.7694683623942958,11.095377563026382,0,0,255
-0.26385384472298473,-2.145470966107046,0.07367125572280796,255,0,0
-1.8877384183562074,0.297329937478989,0.27155320902156943,255,0,0
-0.6254880053330458,-1.9160194875879832,0.39698581248907877,255,0,0
-0.3322059381159114,1.2927323428002793,6.366866897588366,0,0,255
-0.006244691282230083,0.01574230084667585,12.161152641461053,0,255,0
-1.9377447609283587,3.360703909651796,10.825111568156707,0,0,255
0.3201366724671773,0.8795648078294913,0.2583718643836642,255,0,0
3.8886642600030115,-1.9144586246765631,11.547300670635204,0,0,255
-1.9242887149721122,3.9159945362009365,11.146240204275967,0,0,255
-0.05938967969599199,-0.04185647602668266,6.030756859324299,0,0,255
-1.4909053240459649,0.2807178901450771,0.2743063346067469,255,0,0
-0.35978084293541235,-0.8123185624478736,11.8759305437661,0,0,255
-3.6552128003944766,-0.8844165464857073,11.845728784882741,0,0,255
-3.7563660189666477,-1.250179644930319,11.558998081557794,0,0,255
-1.5762301871512485,3.7548292406656496,11.148236974240985,0,0,255
-1.0139251072340452,-0.4825251838930874,0.12865363736884278,255,0,0
2.237238977577129,-0.8700347304150129,9.136740283991527,0,255,0
1.3470010552811087,-1.0839914691917838,0.307027355774655,255,0,0
-0.36659211069816083,2.717576871364888,9.138621586921099,0,0,255
-0.8025616900946348,-0.2898697193098705,2.552845484576325,0,255,0
-0.738744681913294,1.9559957282386113,8.342387570892603,0,0,255
3.9841537220772016,-1.2355625175477667,11.782180877212646,0,0,255
1.2982142508282273,-1.0945774575996021,5.659256185581289,0,0,255
-0.005771228147050977,-0.00472069070635075,3.928475253380756,0,255,0
-1.7555189694739846,3.320489793340231,10.954189288035726,0,0,255
-2.321459115055168,-0.7690495880272555,10.578696567948935,0,255,0
0.7945598510327412,-1.3310589012458616,0.364991447725747,255,0,0
-0.11200569545048146,0.2606558925804611,4.9727459746173714,255,0,0
0.5259582569828047,0.1331726918935138,4.54318161974017,255,0,0
0.5926846442891659,0.6248487112127545,12.703562191069388,0,0,255
0.7723889310483928,-0.9132767766849285,12.602077660851975,0,0,255
3.940773204016921,-1.1461682890134783,11.84618484748424,0,0,255
-3.5851571030214195,-0.9592267363770759,11.597279323620263,0,0,255
-0.1195315494532754,0.06610989163819439,13.521490659251448,0,0,255
3.496376960004004,-1.568574736601648,11.256728423774025,0,0,255
-0.9906130288516626,0.2437500195901301,0.23415665013342188,255,0,0
-0.9995637784953322,2.9179973386325617,10.26501618068373,0,0,255
3.732098357601501,-0.7870356212419898,11.071398023039938,0,0,255
-0.29247554500363404,-0.04300372569177537,0.19015623456746203,255,0,0
0.23694777025524744,-0.2931863947407185,8.707964901444903,0,0,255
-0.6439625451944857,-0.6519951965688359,2.578219947705149,255,0,0
0.023283372780661206,0.005961955643347248,3.5892729777025805,0,255,0
0.16324101991256235,-1.0419408313576735,0.25918003556149266,255,0,0
-0.38544159484273166,-1.8712204782155517,0.14807487543624906,255,0,0
-1.6549691231583132,0.18171885755638123,3.6605222751624584,255,0,0
0.2679260321772771,-1.6511759975738614,0.3127071986863398,255,0,0
-3.4698893342699897,-1.4953013141395672,11.487039421887388,0,0,255
1.3449233255121316,1.5221909601427885,0.19486382578156494,255,0,0
-0.21669048889351988,-1.6916420316936245,0.18610708845317925,255,0,0
3.625632675082069,-1.5219183985827918,11.33235074580552,0,0,255
0.6298938427488032,1.85609437094057,0.2906176785422594,255,0,0
2.1806555494501114,-0.7092053516446595,11.596543546024078,0,0,255
1.1170376235124642,-0.488112476581465,10.069947827439194,0,0,255
-1.6782716419587642,3.8928171175194106,10.33801593714064,0,0,255
-2.3927080659232285,0.043853253685850566,10.083828025914565,0,0,255
-0.47754557594858027,-1.7685047196772576,0.1862191705506811,255,0,0
-0.3226145505815338,1.8503997656351978,0.37862030000302976,255,0,0
-2.351076214350893,3.6836851889637328,11.403120065435463,0,0,255
-2.6568234807427817,1.139638646954395,0.008083745835919882,255,0,0
-1.4959446519644966,0.1890882273962927,3.935598662955573,255,0,0
-3.45331041196188,-1.178666929062836,12.253280139624781,0,0,255
-1.130867739431019,-0.3432873399478831,3.021869204803853,0,255,0
-0.013426928060750442,0.015300756370140986,9.749988416185086,0,255,0
0.7757355382424791,2.1554241512800343,0.24523172890111447,255,0,0
1.3215149570431906,-1.69008215435356,0.3519461365329082,255,0,0
-1.6607146800137187,3.7893796490643865,11.151594419354122,0,0,255
1.5559776174249222,0.8833389080852116,0.25054997544377494,255,0,0
2.1331552836684797,-0.8319120101556612,8.142178742538537,0,255,0
-2.633883979940188,-0.39965953736112414,0.06545558675770026,255,0,0
-0.10726352624391561,0.5648534667648664,0.2935419778502873,255,0,0
-0.008516120820487898,-0.005318457900739766,3.6831206782829486,0,255,0
0.02879566112827018,0.016364130790865558,2.3551278981792696,0,255,0
-0.9255951748935265,3.9615694323333353,10.989776179153115,0,0,255
1.2773230551682002,-1.6637558861078818,0.35503237202550053,255,0,0
0.8993935033629603,2.161017578067272,0.23624323504755423,255,0,0
-0.9249910342353742,0.45710802815378193,6.991044855268365,0,0,255
-0.2628645745778443,-2.3210236458156124,0.3383650057085757,255,0,0
0.8657149423950248,-0.3564882206526322,4.2813835289138495,0,255,0
0.42503011986963357,1.808798187349295,6.813326638387994,0,0,255
-0.5528811815053576,2.3540568745799955,8.627295899561553,0,0,255
-1.485762035314341,0.4926236888489678,0.28632196701688456,255,0,0
2.2115142777482615,-0.6876050030946353,8.377771386796073,0,0,255
0.021196238479253823,0.03637511726929796,7.448811360023319,0,255,0
0.9849141182029346,0.4721930818002782,7.692020621880715,0,0,255
-0.8114980937183914,0.505018851645003,6.618070249250589,0,0,255
-1.1815787029540568,1.0004714537096673,0.12613897441377828,255,0,0
-2.1276258997954183,-0.7349588087391117,7.344815712793121,0,255,0
0.16867623211703903,-2.189585399083785,0.29773951760571543,255,0,0
-2.239066142356312,-1.3024538417533718,10.914856968277181,0,0,255
1.9165417935461486,-1.4123729629969561,0.22304647578228082,255,0,0
0.0227136965638393,0.026988311197920924,6.378441627134035,0,255,0
-0.01741179100274089,0.024560643320765355,10.76811901124008,0,255,0
3.770373563046098,-1.1352906989947322,11.184676295774985,0,0,255
-2.2385572364741106,1.2113191939541235,0.1742984292940593,255,0,0
-2.0831594348614155,-0.7189140608820068,7.115536020607713,0,255,0
-0.1437825987767683,2.189684142340903,0.38783457410926514,255,0,0
-0.951742327954755,3.8513814814230902,11.067749863114809,0,0,255
-0.5859992457033967,2.043575413552928,0.4048274312900757,255,0,0
-0.14595716939885542,0.49720677280532755,12.753873359719691,0,0,255
-0.05569889888074795,1.7627065372386745,0.4052996354674416,255,0,0
2.0273193922216577,1.2537167520091155,0.11068476234099268,255,0,0
-3.634191380892194,-0.7611592612044242,12.014703903212341,0,0,255
2.3841457065234977,-0.35182713936465815,8.845797826106422,0,0,255
-1.3742041280935235,2.8454703384856916,11.283236787944308,0,0,255
1.6749693204702054,0.9705692090460951,0.23058133192613947,255,0,0
-0.03634493772619989,0.25989930164669434,12.9111309916995,0,0,255
-2.216331008976465,0.5195221814388484,0.20074732506791965,255,0,0
0.2788447567290955,0.6379840631596162,13.074485135229493,0,0,255
1.4003480386804168,-0.5933964214569389,10.076688797832112,0,0,255
-1.578636724447343,0.07458721425881262,4.029405827464036,255,0,0
-2.0839630128683604,-0.6779843687091134,6.846752211400442,0,255,0
1.3778943465412863,-0.6955949436814111,0.3217465802968751,255,0,0
1.6317779150604221,1.1383430780642738,0.20390613371876976,255,0,0
-0.9000851530816556,3.9725747792888955,11.00528766888256,0,0,255
-0.5210000852141289,1.2307034322253054,6.400810892106433,0,255,0
3.8232620860440982,-1.9110223724115252,11.502524240982723,0,0,255
-2.4335492230116085,-0.8206134696159518,11.078692951354217,0,255,0
3.7058795183396747,-1.728783301251711,11.39505891545615,0,0,255
0.48242176328733566,-0.2037974403635166,3.8310376609036765,0,255,0
0.005692515475512685,-0.008736072385974207,2.7785299652650575,0,255,0
-1.8622978060347746,-0.6481999935851597,5.383698236097576,0,255,0
0.007926627169663115,0.04699560415870821,2.2886796391031945,0,255,0
-3.386850733274454,-1.144763172453715,11.597502521593032,0,0,255
3.9912041123777415,-1.1749294484037784,11.943922945876425,0,0,255
0.5292104425193414,0.6368893957193946,0.21704605943238536,255,0,0
-0.20136986816558405,-1.3065225365715722,0.34243938641459526,255,0,0
2.736836358841987,-0.41899440372442187,6.510990038061369,0,0,255
-1.9425442077200523,3.9055714595487165,11.083933527737837,0,0,255
-0.6431028240486398,1.6249783487287135,7.79151434464455,0,0,255
-2.1046961071160672,0.16814554722101552,0.2797409568194979,255,0,0
-3.083757584215173,-0.8930074522231897,9.303049868426367,0,0,255
-3.5100275962967564,-0.8743966665314766,11.417060520597449,0,0,255
-2.393324928799598,-0.6791643267525795,0.17629056816459723,255,0,0
-0.8347620323793754,0.24224028885810261,12.706353709273715,0,0,255
1.945382935062882,-1.3220016660926357,0.22496396671329225,255,0,0
1.4364552093770877,1.4617117927961198,0.20302982952767618,255,0,0
-0.3696680623602446,-0.1352858859707273,0.01193274058135372,255,0,0
-0.13550641914759984,0.019603463282677924,13.694852025119104,0,0,255
0.9972785220513675,0.473713427204993,7.654894711690639,0,0,255
-1.7783122185042475,-0.6205467044676354,4.9507784252863924,0,255,0
-0.70091424416536,1.7364810429498827,7.680246814712596,0,0,255
-1.9778307703172686,3.9727641127860105,11.10725347532915,0,0,255
-3.30219432702066,-0.4525633429057856,11.590963295725665,0,0,255
-1.6803604180174792,-1.4828140683727213,11.747100720419184,0,0,255
0.19312847347561915,-0.30003866835065185,12.909105803684506,0,0,255
-3.2115525383533665,-0.5843872931156062,11.125318821596121,0,0,255
-0.4852734674072552,0.31045516403453743,8.065110421897106,0,0,255
-0.3974337811713386,-1.525683235925316,0.3640482097021646,255,0,0
-2.0703890368180344,-0.7176865735600452,6.808386667752752,0,255,0
1.0409179277643632,-0.30252945906831663,8.15034567677371,0,0,255
0.5950932285002063,1.3029223004247543,0.2896913698667076,255,0,0
-2.1835531868930316,-0.7368560469794243,7.843294042721386,0,255,0
0.3232216991454969,1.5326555015834504,0.3298570888799867,255,0,0
-0.6373745409600762,0.4150888321741516,12.885979844618635,0,0,255
0.5985740120718734,0.10141535264217783,4.561028408695961,255,0,0
-0.5390502690594525,0.3535559350342599,12.865528376310976,0,0,255
3.775379042566472,-0.6790141425037903,11.019307429538372,0,0,255
-2.5105597352841613,-1.1785485473372839,8.069273784977614,0,0,255
-1.6608806426958258,0.18484469825909738,3.7619339579785187,255,0,0
3.9522783365031287,-1.007435736959096,10.610581835425824,0,0,255
-3.6826643041197054,-1.5020931730950138,11.602907177970572,0,0,255
3.6299309173774352,-1.9203137749104062,12.116405977087009,0,0,255
-0.90916863870604,3.8935429918312603,11.026806217119425,0,0,255
-2.275131258171883,0.7809125256382108,0.20252886947174176,255,0,0
-2.1004862297876468,3.9927715280375686,11.204784662961249,0,0,255
1.5841076501001288,-2.019769425539133,0.2706778279247893,255,0,0
0.021398988675186643,0.022284418331727448,6.565134385327554,0,255,0
-0.5473309817204679,-1.9273619976286174,0.16079339649416416,255,0,0
-0.022093502207979537,0.030664946771694936,6.748303090067147,0,255,0
-1.5079885700005211,0.18155083760937007,3.933198411571715,255,0,0
0.033119182844038295,0.1239730506156074,12.843038563755819,0,0,255
-0.22734113348057725,-1.3291986098514816,0.20168192492986164,255,0,0
3.572378729898336,-1.9128527468690155,12.132972583686428,0,0,255
-0.37920571799315395,0.4365366067821052,13.499204070180445,0,0,255
0.04144265495240141,-1.3281499858007357,0.3193350385222742,255,0,0
-1.288230894141577,-0.4574171111738134,3.4001326934853227,0,255,0
-1.0313447522304586,3.903246959670732,11.066372562984702,0,0,255
-0.5363738855873517,2.4567252385647564,0.3185003064853392,255,0,0
1.2818978245044115,1.7855015168777288,0.18538698996383918,255,0,0
-0.026835263152523013,0.0312934577642038,1.8838834185205475,0,255,0
-2.4517781616497625,-0.8721508319135322,10.995714179874952,0,0,255
-1.7092994892652236,0.8350504960975238,0.26889721356434504,255,0,0
3.9474117276187686,-1.111998628066429,11.86820583929753,0,0,255
-0.014004078115864765,0.09293194129295643,12.80031150850286,0,0,255
1.2011854250774845,1.340259595098999,0.2212906696399044,255,0,0
-0.04434552548514957,0.35707303597257467,0.26785178070601995,255,0,0
-1.259790627548889,3.9949104645418925,11.397588019600533,0,0,255
-1.1909686017612224,4.073944207200879,11.485284052652492,0,0,255
2.2018891502785607,-1.3637995987490117,0.1662258980463908,255,0,0
1.0886275479727692,-0.01572865287679028,0.20010309631668083,255,0,0
2.219858718468621,-1.2382654742736825,0.20654740332194071,255,0,0
0.6688689694552256,-2.3849500111703037,0.24328766122967024,255,0,0
-3.295802715096136,-1.1627759419391608,11.55460190052205,0,0,255
0.8062752894877099,0.16986023261545674,0.16555503815825917,255,0,0
1.764263614120006,1.9920367655240687,0.00693339618958295,255,0,0
-1.526956508610593,3.7776439465886695,11.059688186439505,0,0,255
1.3560701906830706,-0.9893495166835384,5.588143962989028,0,0,255
1.659580867399287,-1.1158157781824773,0.2829789582237856,255,0,0
-0.08348101112303347,0.07202736046287012,13.569985728939217,0,0,255
-0.17773191396091603,0.7301569881750896,4.632521441300733,255,0,0
-0.29365453683614234,-1.0934963279410281,0.20629830101889712,255,0,0
-0.33407173869367096,-2.724934121378589,0.23529357557690558,255,0,0
3.685450394168101,-0.7406331098486705,11.208880503234358,0,0,255
-0.3204216639112535,-2.1320732842886985,0.06790900217576092,255,0,0
3.955541971261345,-1.1263993144069362,11.872496826308211,0,0,255
3.678797857013523,-1.864198502866992,11.814112017923955,0,0,255
-0.009491635041221939,0.03816057975487047,0.9269579889812493,0,255,0
-0.019263188412439257,-0.0037991992376803308,2.180637211552062,0,255,0
0.18603933744515141,0.9047587054691365,0.0861960912539587,255,0,0
-1.6354761483784914,0.5851538035124455,0.27979080306700765,255,0,0
-2.700087812777851,1.2150995916267622,-0.006829221426602191,255,0,0
-0.9461479008775961,0.5616144143679255,8.755949248016147,0,0,255
-1.081381198191621,4.206273350267148,11.491510196719261,0,0,255
1.1594268523121154,-0.3456962653597036,7.950314889353958,0,0,255
4.007590163633866,-1.4790553575764118,11.253432040334866,0,0,255
-3.352307964702363,-1.1456122756912424,12.056042015691165,0,0,255
-1.374803240017934,1.0216852499520899,0.12336396760559773,255,0,0
-0.16379311389776555,-0.872567285632782,0.1783909095382987,255,0,0
1.287457476476463,1.5242865067149265,0.20044278050150863,255,0,0
-2.1222494281177267,0.6947842926460801,0.2582454921881611,255,0,0
1.3222213070791276,-1.5643157659792775,0.3682714287664606,255,0,0
0.38544714905059696,-0.43581406850547877,12.31051008245439,0,0,255
-1.4533311243493634,4.177002428315529,11.27675296904768,0,0,255
-1.6647358655949893,4.049171745281367,11.62500278125027,0,0,255
-1.742884388400887,4.046742015382457,11.633770960798625,0,0,255
1.5073065630086766,0.8214557153399374,0.42075398137734354,255,0,0
-0.197816565051613,0.20600300429055934,0.12203876786807562,255,0,0
0.36627718292169836,0.49790241683121056,13.438319336559008,0,0,255
1.1657016681661656,-1.6131359998904542,6.111942519458842,0,0,255
-2.5281295101644554,-0.8709558731442462,11.204377563482186,0,255,0
-2.1350062307738673,-0.6966818620717014,7.453396867466642,0,255,0
-1.2659194674260807,0.5476963386719861,0.2681541113955904,255,0,0
-1.5938970513476263,3.8093528224298234,11.058745861104448,0,0,255
0.8608935924583987,0.4401570778968946,7.559745960513078,0,0,255
2.017176947002657,1.2902821971724996,0.09961744812063308,255,0,0
-0.9468111061978837,-0.1549237362270189,0.24280871997639975,255,0,0
0.7459756844729455,-0.14458778776847375,3.0377633055935678,255,0,0
1.4623193118495224,0.725215890626787,0.2804506877377542,255,0,0
0.021596614893274402,0.005404752584359157,4.074230849949657,0,255,0
-0.40469877195870085,-2.2238686782125026,0.03363958718470044,255,0,0
1.881266354341386,-1.3392909963043622,9.551221446839678,0,0,255
-3.8060343481620644,-1.2596498639456715,11.49733650309794,0,0,255
1.9181783159508248,-1.4842755518841353,0.22116795160347452,255,0,0
4.133674727373809,-0.9485417782717536,11.551227790518855,0,0,255
-3.399293251279212,-0.9629153966642853,9.471907587685513,0,0,255
-1.2870348996768353,-0.19395011504773554,0.24994542672330736,255,0,0
-1.211014016147871,-1.1450505171974394,7.115281125648959,0,0,255
-2.001730771188562,2.360774282669513,11.058436498644637,0,0,255
-1.8909299529717538,2.6320987781312652,11.648016745065224,0,0,255
-2.049479631590037,3.9437662249389294,11.327927693735395,0,0,255
2.5644162819476763,-0.6956395724220863,10.938554797714282,0,0,255
0.8097243642970404,-0.30112155730132356,13.343727065638031,0,0,255
-1.7705088638798148,3.845296346808853,10.45408366965118,0,0,255
-3.2016368301359384,-1.5213345554498516,11.945640627329347,0,0,255
-3.445121203212905,-1.4625732947118892,11.48810859013767,0,0,255
-0.5209857615154229,-1.8236488525082037,0.381153303591034,255,0,0
-1.145608976695861,-1.1489041952280086,7.196027891997992,0,0,255
-1.8113552439371654,3.9061854793064468,11.76855355715944,0,0,255
0.3581373642485798,-2.6471732126569325,0.15312866326648006,255,0,0
0.29707266630440743,0.473252572965247,13.379340841963213,0,0,255
-1.5608640138854843,0.1378881568362097,0.29844293346712414,255,0,0
-1.8157485439729817,2.0387637334817192,9.192523036991453,0,0,255
0.17189394501488203,0.11270207724876709,6.947596646760257,0,0,255
1.6004252426507515,0.6915687412611493,0.44927552296171813,255,0,0
0.428703165850167,-0.573494753422559,9.391441440969064,0,0,255
2.5633538052468436,-0.576329003660746,11.122364127245664,0,0,255
-1.2453867971930537,4.243795406060784,11.622459913753705,0,0,255
-0.4847180164044984,2.6288051697043002,0.2675435422221984,255,0,0
-0.05367843936313317,0.3957417686649827,0.2665066377155514,255,0,0
0.02068351076003906,0.025564323613819454,7.663041455163428,0,255,0
0.23775490481673345,-1.4181246520787507,0.29793160849292516,255,0,0
-0.02087918123154743,0.6191053541734315,12.740615857699153,0,0,255
-1.64506991289347,3.858244574149011,11.033506571658322,0,0,255
1.0707228411756318,2.460244776304368,0.14777397348344362,255,0,0
0.30970582793671064,-0.4003203391662459,8.916841234698797,0,0,255
-3.3746925547704523,-1.2245109548692914,11.512197024299805,0,0,255
-2.379408898877651,-0.0976028507990678,10.078398918430857,0,0,255
-0.9140408824100931,0.5509596210568537,8.69384821036817,0,0,255
-2.08604604277127,-0.7169114878312638,6.848616141417447,0,255,0
0.79537234342348,1.7019527122316596,0.3019656340788208,255,0,0
-0.8224715282992388,-0.5300277922472657,2.820408387010219,255,0,0
-1.0858856831643295,2.6096977554657426,10.558517444023126,0,255,0
0.9983513882169215,-1.0876679338597062,0.35805693871723765,255,0,0
-1.548160045610278,4.231775201776301,10.977152601120112,0,0,255
2.453097467288705,1.2724894271245333,0.3283659845737346,255,0,0
-0.004367732182885576,0.007823596861461904,8.735330471736582,0,255,0
0.37983503335050034,-0.4948811395087231,0.2833919835293323,255,0,0
-3.330645908785673,-0.9050500117303182,11.337908564449837,0,0,255
-1.6725408008626115,3.794912093893471,10.470634449180295,0,0,255
-3.21936474455159,-0.4258448209936166,11.61840677546046,0,0,255
-1.2519067366125465,0.27626832940476787,0.25695437300408114,255,0,0
-0.3732728396766627,1.6704592955604218,10.082666409241979,0,0,255
-1.3592951581811064,0.24895038917975765,0.2659627283450574,255,0,0
1.6760704557100317,1.3350499509495228,0.18602348778793582,255,0,0
1.9843893257634027,1.1116122204973256,0.1711734806947683,255,0,0
2.2705507755501393,-0.89860423267165,9.35944022913846,0,255,0
-1.4371639456979666,-0.5090439863058687,3.7434147428838846,0,255,0
-2.2732179658244864,-0.7575296632684203,9.69280294840983,0,255,0
-3.410902873697344,-1.485561531710388,11.567209827592382,0,0,255
-0.8109299062264305,0.3494782201051481,0.25491645492884224,255,0,0
-1.9397093451107192,1.114128039722499,0.25999993849940706,255,0,0
0.02885160460865037,0.01591252043279982,2.0587647600082315,0,255,0
1.9214539891691458,-0.7684101095596194,6.862334090730486,0,255,0
2.5773325389269006,-0.4470792907578974,11.279550625583266,0,0,255
-0.10473345517009153,0.4780882743312933,12.7639736353697,0,0,255
-0.927323980616753,3.9732033160418485,11.006858630064588,0,0,255
1.1771757231818505,-1.6364905974692303,6.115144315313788,0,0,255
-0.40422626746921164,1.4840287289970597,0.37950006166046535,255,0,0
0.41686221892381836,1.7895749716743399,6.840300475732613,0,0,255
0.44881468746158937,-0.5975750984398303,9.55342473291158,0,0,255
1.6182800962778514,-1.0332465508764952,0.2902345405919227,255,0,0
-0.4000547627208396,-1.4598031388827948,0.3640926789324325,255,0,0
1.380786851986364,0.12525625889708203,0.17161266004926834,255,0,0
2.435208496859774,-0.212418977972681,9.116671958916356,0,0,255
0.14557031167570236,0.6631359437198445,12.855590568954938,0,0,255
1.7315291494006306,-0.6628532190732448,6.165676966363987,0,255,0
-0.8328750046612559,0.4874002241510244,6.7458928416497095,0,0,255
-3.8015645754792544,-0.9084182658856951,11.764571726086603,0,0,255
3.4956703363695394,-1.5833747469180557,11.658090684257164,0,0,255
-1.4953201551712134,-0.528572179702337,3.936281623371251,0,255,0
-1.9295192994146733,3.8243893656987886,10.99199218886206,0,0,255
-1.5643890228913937,0.1965779613094623,3.7733717389013943,255,0,0
0.10230377513073417,0.18790467019421145,13.33918539612733,0,0,255
-0.38536015108153465,2.6304748825476976,9.029021039160872,0,0,255
0.8642013803353311,-0.35024340223034645,4.289560018610894,0,255,0
-1.5336727081105679,0.43001680321322966,0.2855615129324914,255,0,0
1.180099886719314,-1.5521961648772118,6.062833437257744,0,0,255
-0.5653274141300462,1.3695368498180347,6.702310449493227,0,255,0
-3.6078999840012314,-1.4008268394086452,11.99771650618479,0,0,255
0.7774368305353757,2.183642475666022,0.24001849427823432,255,0,0
-0.43644970523399257,-0.3432505701608086,12.869113136638461,0,0,255
-1.5186151078252985,2.018201219944227,9.136222650232614,0,0,255
-0.42059326690344767,-1.4781573094833025,0.36827495329944354,255,0,0
-0.1675945819770402,0.5202913919949586,12.82296145553375,0,0,255
1.3303163334014152,1.7324868162473162,0.17397747574629605,255,0,0
3.9932223286765325,-1.161856079205941,11.874169413918176,0,0,255
-3.544142872691786,-1.3483520702815774,12.000101821966435,0,0,255
1.6032498134471909,-0.6199238011268283,5.661511680573231,0,255,0
-3.2911375222647545,-0.3519555663285306,11.518662499980337,0,0,255
-1.5131507820501784,3.655685258192715,11.1465323870543,0,0,255
-3.2113722632160657,-0.46811049836101026,11.624684391828577,0,0,255
3.5398436772205697,-1.469939207473887,11.421481213179243,0,0,255
-0.728941607144876,0.33540810510700336,12.934162982412339,0,0,255
-0.6666304011569582,0.7221924396735352,11.460647352589183,0,0,255
0.5537785270447853,-1.8798566378044954,0.33256308341930985,255,0,0
-0.6316563351894495,-0.2594147440134212,1.2478030461878018,255,0,0
3.6603443301705325,-1.6286185217660685,11.77865402299419,0,0,255
-3.842531554585506,-0.856418546417822,11.821768174757947,0,0,255
-0.08692743729981939,-1.9224199831767106,0.4042333340448817,255,0,0
3.5537559311795848,-1.7457171638479951,10.611113805492103,0,0,255
-1.7085256952550254,3.608040282435087,10.875029828082855,0,0,255
2.179451162210971,-0.8774570592417406,8.631952897983698,0,255,0
-1.799451830081395,3.348556630806368,10.930060960034083,0,0,255
0.1290520667586842,0.7159826525257766,0.09969503371624787,255,0,0
-0.24684136447730992,-0.06768747514989873,2.037403613616071,0,255,0
-2.9659066188715553,-1.0202432320436376,11.562674716142913,0,255,0
-0.6238560676802998,-2.8266230088558366,0.17028447209695288,255,0,0
1.5667881362673706,-0.5834281623593829,7.282906349372058,0,0,255
0.015527351046478635,0.049501734317319135,4.297366057962067,0,255,0
-0.4413540660953471,2.57278719171055,8.93766537882477,0,0,255
2.878444121229009,-0.4595643894832899,10.321815490924948,0,0,255
-3.241724572962422,-1.0927334158392952,11.599385639129428,0,0,255
-2.4391615288052457,-0.8067310956468986,11.030575974019287,0,255,0
-1.3133456597109685,4.04423173365565,11.026694414197628,0,0,255
2.4251171828342395,1.4791879414494433,0.291233795766335,255,0,0
0.47718365575451765,0.29693580465263336,0.33073850998549464,255,0,0
-3.0888243921842538,-0.697663690675701,11.690664343101833,0,0,255
0.21358280234091717,0.7157430030777173,9.795713287397307,0,0,255
1.284764455061983,1.8208808856916214,0.18360180247633076,255,0,0
-0.27723280541869993,0.4366590837690801,13.52696085481628,0,0,255
-1.0948500373038312,0.3370894620703284,0.2589973019325423,255,0,0
1.7400978059350711,0.2951479874935411,0.09004428936081738,255,0,0
3.930829837069609,-1.5379925052827375,11.766692361312794,0,0,255
0.10800433200869534,0.22868753116322482,13.668712895569291,0,0,255
-1.6426220064755173,0.7239600629825645,0.2700985668487309,255,0,0
-0.3494823489574159,0.43999735765983383,13.564852406535199,0,0,255
0.44903991724210374,-0.5077942129869042,0.038759634403571275,255,0,0
3.8400683862280522,-1.177733332814143,11.275851776887592,0,0,255
-1.9136221789411307,3.8214939577781686,11.112448661926676,0,0,255
-0.3215819440671196,0.4154093422928148,13.299743912049061,0,0,255
0.786658602859624,2.3570611157097425,0.20519819923622667,255,0,0
2.001628109361219,1.1428810114554886,0.1571258818117228,255,0,0
-1.7410719838571618,-0.5889965784793001,4.677653060488023,0,255,0
0.2779761430472524,-1.7992033386907633,0.3127417182832316,255,0,0
-0.18402898788830158,0.17280958791348244,12.967767990353188,0,0,255
-3.6320948158277173,-0.7758598484048422,12.091677288462382,0,0,255
-1.3796133614051131,4.209292636925125,11.359657328121143,0,0,255
3.9947032694258224,-1.681761011372069,11.358238509615914,0,0,255
-0.4012170277995344,1.2468570267405372,6.313758983803574,0,0,255
-1.249133268310818,2.0038220890231333,9.05669928962348,0,0,255
-1.204346163690578,-0.11245095468158048,0.256107232310837,255,0,0
-2.1186662751355807,4.316736690382985,11.18129064656763,0,0,255
3.601303848005959,-1.797361261979414,12.061130481513317,0,0,255
0.6016869816914137,0.31248577915667475,7.295521053314781,0,0,255
1.0931083621614113,1.2898650161955432,0.2259047990282649,255,0,0
-2.419664248218731,-0.9400961707924895,11.366872423142759,0,0,255
-0.40805799001945015,-0.5010155178607715,6.57262732266337,0,0,255
-3.370871976537013,-0.4842824277351143,10.923051013814153,0,0,255
-1.6429574658687502,0.524982662124098,0.2907897226884056,255,0,0
-2.0637612491166517,0.2683883806624197,0.25641844498637045,255,0,0
0.021290335450452627,0.041877640587503234,3.3283440625342546,0,255,0
0.7471381354288014,-0.28443242626166404,2.816975889277663,255,0,0
-0.06198460862879929,0.03454310786007425,11.756182600421948,0,0,255
-0.44890657392876077,2.3227580659993867,0.34057696019617234,255,0,0
3.551696345460484,-2.0746303201032275,11.538101999573108,0,0,255
-0.1480735418387568,2.3992132273846973,0.3655415845368585,255,0,0
-0.881670116668373,1.6639720736749963,7.041093477555329,0,0,255
1.0513036697595093,-0.4469772195746452,10.067035068547836,0,0,255
-0.4927015723771305,-0.3760487326401562,12.832784748870385,0,0,255
0.18748639262856936,0.5307361672470424,12.997697009614418,0,0,255
1.3459438130078398,-0.5242098803110733,5.022447425832285,0,255,0
-1.851063763764634,3.9067127719779915,11.884178432650444,0,0,255
3.6931577568273166,-0.8057834994175596,11.120388079344398,0,0,255
3.743205477902946,-1.2271954057215404,11.651675766949685,0,0,255
2.276820476706932,-1.5798681538512245,0.09162464771087897,255,0,0
-1.2584696200567822,4.340178205521304,11.190040303434074,0,0,255
-3.6774044436126054,-1.2151563340967504,11.811797811124066,0,0,255
-1.85807549067763,0.0672067116726516,0.33124042958996863,255,0,0
1.784539561309229,1.1448520920027077,0.43080965578151226,255,0,0
-0.3300095499831148,-0.12285385863995894,2.09136986513965,0,255,0
0.701844214073764,-1.2458640315855432,0.36309816290241864,255,0,0
0.3909886613286252,0.5097937489228954,13.409536134657536,0,0,255
1.0844478350229316,1.6474298514526775,0.24319316852371076,255,0,0
2.773004144735282,-1.0927277542243732,11.464284844323705,0,0,255
-1.7464879951554955,-0.6751299091517864,8.741618056696145,0,0,255
-1.9663690663116067,-0.28940273503564784,0.24342151111981858,255,0,0
1.1001612263388583,2.1856842142975395,0.24953593469805244,255,0,0
-1.485719813926869,3.965360816353038,11.091213150621238,0,0,255
-1.503604991578233,3.8035221073555183,11.069918091302018,0,0,255
-2.1601313271442653,3.7276130044653946,11.442084025401897,0,0,255
1.556871208387477,-2.045010137334396,0.2671200174167925,255,0,0
-1.8444043400096093,2.0257240117059365,9.17413265215059,0,0,255
0.41002521987637847,-2.485005715578872,0.18005141641007216,255,0,0
0.014320336251480678,1.8124836204906252,0.4298674602396846,255,0,0
0.5375672789418459,-0.0705974583301798,13.62677312891308,0,0,255
1.6670958685035304,1.3638453802961226,0.19059255986351006,255,0,0
-3.3000624937320193,-0.9571139858876145,11.328140986559276,0,0,255
-1.2880189214727071,3.9955195900825666,11.070064332310842,0,0,255
0.8575316913056349,0.5752163627500537,0.20981417945579345,255,0,0
-1.9084453320327355,4.108180384246754,11.134366788983527,0,0,255
0.7855433951671025,-0.21481464377896287,2.8170113538391943,255,0,0
-1.5378868777797097,2.0324762856056084,7.385583057000637,0,0,255
1.8426684799727169,0.1455620987170374,0.06866518983600474,255,0,0
0.4710772783363538,-2.609947967360899,0.13814127892305567,255,0,0
0.0007866569126345107,0.0033618780233817644,5.079797885335783,0,255,0
1.5596323990276084,1.3643133188214345,0.24138276111699947,255,0,0
-3.4162456240155326,-1.1866894327213569,12.2075098571365,0,0,255
-3.4501343576107892,-0.8312549617878513,11.944962917169581,0,0,255
-3.3224174446587518,-1.072787850170545,11.675550058608803,0,0,255
0.5348302053383204,2.1415430871631402,0.3007095153952393,255,0,0
0.0008692824861088987,0.07539778885029133,5.06869738838699,0,255,0
-1.573213553067227,-0.5456772453501693,4.092763491732395,0,255,0
3.698582171957943,-1.1373778341566814,11.2615900217395,0,0,255
-2.4273020955034585,0.14922543074993141,10.090550527937996,0,0,255
1.5765282317791318,-0.6578887121969165,10.078685442938031,0,0,255
0.7212694642226447,0.7912763114755215,0.21460939050253797,255,0,0
-0.021627053242089612,0.03227299258730178,7.442681745607252,0,255,0
-1.6697070542067185,3.5837054052094013,10.912266188503844,0,0,255
-0.042884877929497724,1.5483910622166919,0.39227736572969085,255,0,0
0.8590332253218635,2.3768714503148964,0.18669593883133895,255,0,0
0.6231197094889915,-0.19987589823600596,3.948033230379525,0,255,0
1.7431146203792676,1.0082572303975472,0.21823427598886785,255,0,0
-1.2705757452624096,4.240567118229263,11.639432988161005,0,0,255
-0.008695641499285565,0.03708603788113552,0.789493351203454,0,255,0
-3.3799669241738894,-1.1779436471386162,12.193729256172388,0,0,255
1.969627262615336,-0.9330757396569053,0.3228536611091667,255,0,0
-1.5617608930101494,2.0353731025267234,7.36161167864655,0,0,255
-1.2707052538077939,2.000851416299476,9.057514184838455,0,0,255
-0.019010798078280544,0.5320362648497314,12.788800797398483,0,0,255
-0.11671412737970191,-0.7380501395913817,0.1624192793882635,255,0,0
3.68974208767881,-1.7106441333102747,12.019037273200475,0,0,255
-0.1090773623001225,-0.5821016641724042,0.17932271556730003,255,0,0
-0.686415168791189,0.2255920287612141,12.482165320340034,0,0,255
-3.3458685407662254,-0.8867764865938572,11.847954711738442,0,0,255
1.5760961470897028,-0.5896187906895638,7.270723496313051,0,0,255
0.505061425933598,-1.8696868057746197,0.32361490543114946,255,0,0
0.5287852067708199,0.37387134271004047,0.20670357549473423,255,0,0
3.6790840298995153,-1.7845673552652312,11.74786948181586,0,0,255
-0.11136948311810872,1.4235627082911821,6.473222135793,0,0,255
-0.5339285440614554,1.3468885516053701,6.551627436891523,0,255,0
-1.2917518382287332,4.162415093879547,11.605316095998079,0,0,255
-2.0086343254272463,3.904067874488081,11.288809440174596,0,0,255
-0.9863092971463537,0.20143653887242222,0.2288504054016388,255,0,0
-2.0391420829501152,-0.4038170734676822,0.23073082365089528,255,0,0
-1.1596928728606015,4.1239807118539,11.537160088327976,0,0,255
0.4244315229417173,-0.581332846686683,9.457796613384449,0,0,255
1.9917587581661889,-0.7973013846937653,7.231035397906741,0,255,0
1.1020312578728901,0.9885651481941586,0.25452208888740996,255,0,0
-3.208246567241215,-1.6789938180800699,11.980013780240766,0,0,255
0.28603929943260525,-1.9139931251760847,0.3060149861150941,255,0,0
0.01239228183212629,0.04662540910051076,12.54784009193877,0,255,0
-0.19847509587051837,1.5419416614202133,0.36344916376134373,255,0,0
2.444371051640286,1.45176734621859,0.2885919704666185,255,0,0
1.76036424537364,-0.6875363802974642,6.3162603868476666,0,255,0
-0.8261929558930088,0.2867620755534441,12.938892538663055,0,0,255
-0.6645623156882178,-0.2083312432868735,1.0992256216609064,255,0,0
2.075258008365683,-0.8027836282972438,7.7314861605552,0,255,0
-0.022582122657764343,0.004563409807458283,3.433950630172749,0,255,0
-0.39257812297174743,-2.3162150989942663,0.31926846184183294,255,0,0
2.614448443317949,-1.7068185504468423,8.3355971714976,0,0,255
1.3483422743172209,-0.4805024883807215,7.626189256762588,0,0,255
0.0858586739319945,-0.12571628809152888,0.1728501127676021,255,0,0
0.18476830246143996,0.059545875641366944,13.129664640185082,0,0,255
-0.3439058735297419,-1.827604491803758,0.15569347289773827,255,0,0
-0.6033483086263115,-2.91274948217454,0.1415589484262542,255,0,0
-2.080817166222769,-0.6944391471680957,6.70893976131882,0,255,0
1.1988535942887517,-1.4716783222791667,5.952405561553727,0,0,255
-3.1701147683624766,-1.0576979916379672,11.439947081676873,0,0,255
-3.354967907009315,-1.09106765025736,11.411679479326146,0,0,255
1.157377460892614,0.9399953756176166,0.2514223022850861,255,0,0
0.2726501598292688,-2.206103468370263,0.27123566884414807,255,0,0
-1.9750031090430453,3.8716378918572776,11.296072681054588,0,0,255
-3.2104354030874815,-1.6923398626680553,11.994663788608333,0,0,255
-0.1930309526381158,-2.1011838998432055,0.10619106084885566,255,0,0
1.3246439814256443,0.8862040529097995,0.24366056949884551,255,0,0
-1.047256013960592,0.6089456144833372,8.898680278671327,0,0,255
-1.8307783842225382,3.9035608587214092,12.007778034265534,0,0,255
-0.14670757647233035,0.38385930349871455,5.249108160390838,0,255,0
-0.030002118574326088,0.008390816322471368,9.649885210654574,0,0,255
2.849338043379419,-0.5158300587452158,10.207048954238177,0,0,255
-2.1113171993551747,1.1590302865288584,0.2133046547829066,255,0,0
-2.0264675882186753,3.8864673231093585,11.344802812043437,0,0,255
1.0763933292768861,0.8041872101635692,0.4047458205497684,255,0,0
-0.005001778383115257,-0.007921452343039889,2.8298360371899354,0,255,0
-2.4717569178900636,1.2519709690553618,0.08351461870270642,255,0,0
0.5137741975347035,-0.13939801884015315,13.605766234923793,0,0,255
-1.5034098906161066,4.200191106551047,10.94102103053814,0,0,255
2.546046022961243,-1.0606783571192704,10.327006487089939,0,0,255
3.7055519141803934,-1.7390596857668554,12.035189590622103,0,0,255
1.3271817396226526,-1.0934025117666915,5.664248501612159,0,0,255
-2.1689213798420313,3.7470821286131524,11.358562377114257,0,0,255
0.6936748059172005,0.33267822940708447,7.353643112631278,0,0,255
-0.16365658328719015,-0.09481357419634176,12.939255898972345,0,0,255
-0.019593396975150328,0.039527190102583105,6.289344261625126,0,255,0
-3.227907535732091,-0.39317095490499687,11.617542714779443,0,0,255
0.11392038545897153,0.2371641941501585,13.586414804239233,0,0,255
-1.6882694807612793,3.9775282394944558,11.636761745922483,0,0,255
-3.6894740570468967,-1.2083664418528324,11.486319357389231,0,0,255
-0.24518730000793626,-2.6306528425454756,0.2853623853020056,255,0,0
-0.34830725004025287,0.39562089665371897,13.414791151456292,0,0,255
-0.1327991512956763,0.0057599452962799,9.72165016197817,0,0,255
0.1410812697917916,-1.5679898903644014,0.31861593037231883,255,0,0
-0.009389447871022782,0.03736819410952689,0.8323058992710288,0,255,0
0.015564224252556824,0.03958818203753408,10.346734863841139,0,255,0
1.0715802884336707,0.7854285049775204,0.399913332381987,255,0,0
-1.2557338024444031,0.4039803439937324,0.2842256889385055,255,0,0
0.5741505253513085,-2.0559924151440474,0.3072515328964772,255,0,0
-2.2637753312409012,-0.2763844047733454,7.161520003958239,0,0,255
-0.3603563040922553,0.6119686582288153,4.679155879100053,255,0,0
-3.309029297793086,-1.094903263298658,11.503798250747789,0,0,255
-2.135549349411334,-0.8419070921829142,5.518526867784404,0,0,255
-0.45335184823169644,-2.1262709705729597,0.3467969482288623,255,0,0
-0.32265553672058733,-0.10634937809893476,1.7116841127796059,255,0,0
-1.6818930736780677,3.732403517833111,10.91405008186995,0,0,255
-3.394797560671127,-1.0484232493507668,11.260851295707937,0,0,255
1.3134321765742143,0.9060434239045976,0.41760950742398123,255,0,0
-1.5298095751777954,3.750364772616032,11.141458781200534,0,0,255
-0.5646616713362637,1.4419215663325606,8.083546417034567,0,0,255
-1.226840273897791,1.1240146380134806,0.09666574309675983,255,0,0
-0.4944298093268605,1.256137177415558,6.370056691550094,0,255,0
-2.218715134167187,0.7070751301046875,0.23323090308427355,255,0,0
1.3261975245429165,0.09539739840508397,0.1796810731246838,255,0,0
-0.5826012610323776,0.5636010357247636,6.031128594513769,0,0,255
-0.5467088362877934,-0.16703376783352467,1.4203138354788625,255,0,0
0.9259011648003701,1.9576485645073691,0.2825144348910649,255,0,0
-0.16170073231314785,0.739689055232703,13.119482294580315,0,0,255
2.34204584900671,-0.9268959092408183,10.091413362302287,0,255,0
-2.293624706279509,3.7358521047116233,11.40257599055536,0,0,255
-1.8046681806310427,0.1832850350953521,0.29751305055906596,255,0,0
0.003917582930467348,0.049031335194612356,7.735138756002991,0,255,0
-2.373965959444882,0.2281241182172899,0.21528465912147826,255,0,0
-1.493763638118801,1.1351060336133645,0.07871545661309663,255,0,0
-1.6228110901740638,3.8853849916217964,11.044429676038288,0,0,255
2.8641246978731134,-1.1388980781540716,11.318812726454487,0,0,255
-1.0147427408850345,3.9037154732500277,10.974064994968433,0,0,255
-0.5879396571467037,-0.7421895923970596,7.103814751608453,0,0,255
-3.2824188579107987,-1.7299111626355075,11.948222155844798,0,0,255
-1.2641239920941472,0.6241030849906668,0.27337246616562083,255,0,0
-0.5010510880319113,-1.783203252713159,0.18821544335940749,255,0,0
1.4270338334585932,1.118333597872102,0.456881509867227,255,0,0
1.3013950211432106,-1.4602168352827802,0.38078233326202815,255,0,0
0.9391947841390438,0.7071418512924993,11.885544889558094,0,0,255
-3.3766969550235446,-1.4855208518286211,11.506468214502238,0,0,255
-1.5022840633785226,-0.6625113093893027,9.108479873496329,0,0,255
0.727295815374223,-0.36249244457555263,2.8527048515470046,255,0,0
-0.25064325356893025,0.3540814761076861,13.298273871641912,0,0,255
3.660053467825061,-0.7890699596770867,11.144795126790648,0,0,255
1.409342791069174,0.16097212012701848,0.16664215072419983,255,0,0
-1.9791784701666388,3.96151819533002,11.326159392786874,0,0,255
-3.265870788562283,-1.686719336497936,12.040705211335881,0,0,255
1.5239203624406614,-0.6312635967612206,10.101947300362134,0,0,255
0.017390109710866672,-0.016579332983136987,0.7837913545281103,0,255,0
-2.354753270051556,0.8632636016070601,0.16332586455648018,255,0,0
-0.3576179531557011,-1.9365548508603578,0.1279765181232006,255,0,0
-0.15338323703592335,-0.756732815669122,0.3220161435697382,255,0,0
3.2432539699087015,-1.290988444487181,11.46085881801348,0,255,0
-1.8211783105118369,-0.6032521478700621,5.217399150532955,0,255,0
2.5310640684232215,-1.3620235747924625,11.069571080492818,0,0,255
-3.714414367423748,-0.9506459071155764,11.898860959209792,0,0,255
-2.6038846305986425,-1.3292130953688583,8.273198849772982,0,0,255
-3.277351407085867,-1.0653866697247725,11.405109753167507,0,0,255
-0.22583584170857424,0.7991098767324948,4.51043273649142,255,0,0
-0.6952182880394071,0.28864360269882333,13.067137732460136,0,0,255
-0.6058207147604674,-0.7437882982956532,7.118901451253572,0,0,255
-1.2263815206205781,2.3496195299356395,10.36258214412031,0,0,255
2.0080221695436027,1.3896555082528264,0.077334985925837,255,0,0
0.019136212710821,0.04483689939567473,3.797783769089139,0,255,0
0.3226987179686476,0.49226331427262515,13.304173713610043,0,0,255
-0.12259296709772405,0.47088702699659374,12.99327669710895,0,0,255
-0.5725335302973973,-2.875380509508806,0.1505196960669781,255,0,0
-0.3894746814764299,2.632359976863242,8.989455774249826,0,0,255
1.1224850826922088,2.215188184885679,0.24314020461417687,255,0,0
0.3900103645645001,-0.5465640575010345,0.2738608158206132,255,0,0
-0.029333710095391083,0.011250407441061093,2.1714630658388803,0,255,0
0.5736066021148302,0.08755736796404073,10.613124743588568,0,0,255
-1.0959764620237098,4.27497167799698,11.573598394491892,0,0,255
0.3416858640298551,0.9939011647306573,10.360389051761572,0,0,255
-1.0572670217646842,3.835628445639608,10.475704578689703,0,0,255
0.48309250525126424,-0.20030003417933462,3.799732878055874,0,255,0
-0.631250526754634,1.5924899458777744,7.825410775631475,0,0,255
3.4334172089572865,-1.853906248300901,11.662663031695189,0,0,255
3.4544843714821964,-1.5720379460040932,11.264391722247941,0,0,255
0.13720060403229514,0.07679000333185604,6.9013710791867116,0,0,255
-3.2517224422862636,-1.0968508516854438,11.626385488946282,0,0,255
1.1801693932076218,-1.0417104499946175,0.32300054290970065,255,0,0
0.33392436239266604,-2.453767100339396,0.20134877466637285,255,0,0
0.37748276907213807,-0.5254942210902263,0.0608372814684153,255,0,0
-1.2613320570629913,4.1918358771258175,11.6800033442271,0,0,255
-2.32612213699396,0.5907040331554636,0.17435158035074466,255,0,0
-1.8928107941907901,-0.7089081623727304,8.598520741796214,0,0,255
4.112480247730161,-0.8405955557649223,11.63123462293991,0,0,255
0.8439348735713704,-0.15905615855959374,4.621176175144238,255,0,0
-3.140851327316905,-1.0454977222993227,11.6274599803716,0,0,255
-0.5425321613110059,1.3116779803797525,6.576004666464828,0,255,0
