-0.44376225058669094,0.41281926938845515,0.153634643487208,255,0,0
0.0185203176007928,0.03970578740678639,1.9890739369964923,0,255,0
2.253180050313588,1.637124214395555,0.36021359915168794,255,0,0
0.2835863730753387,0.852567588231001,10.047297019253227,0,0,255
-0.6959696864989809,-0.5775540744557505,2.7257863045559283,255,0,0
0.27365780813267415,-1.9728139402892768,0.3025202957752696,255,0,0
0.7169960491037204,-0.2871766252029908,13.231773827861108,0,0,255
0.4188635131414745,-0.023043740036153348,13.42267599930304,0,0,255
-2.7271414744184788,-1.4554693756924995,8.526555994906,0,0,255
-1.8492861037228085,0.001779617384398971,11.592844851412973,0,0,255
1.37569448203873,-1.3523165072220444,0.4124668383044827,255,0,0
-0.7452122134166339,1.8630508179990521,8.07561253192417,0,255,0
1.6598699344542571,-1.364376496944112,0.2873449162479016,255,0,0
0.3515961474485339,-2.2479936747120677,0.2505188147080884,255,0,0
0.900566291629829,0.9002609929433061,0.23078267503422228,255,0,0
-2.1171247540278832,-0.04394116786907654,0.2810563359343202,255,0,0
0.5690734086302108,2.30399771747015,0.27754677330394456,255,0,0
-1.1678607931763971,0.5022665907252563,0.26472336878741587,255,0,0
1.7313153424105105,1.2586420414859971,0.17144458250072547,255,0,0
1.0185361943536997,1.8896978254234118,0.3139695760192333,255,0,0
-0.42951986817648025,2.0756504476781776,0.37526923232807746,255,0,0
-3.616650137763165,-1.398310835695408,12.010974084861894,0,0,255
-1.6410209400073212,0.41574040253039835,0.2818317337035184,255,0,0
0.6192040968303179,-2.493408674931159,0.19459679395477653,255,0,0
1.9287090918589722,1.1064402167359841,0.4190715475047647,255,0,0
0.06428587363142538,0.6577385764268051,12.811893327490084,0,0,255
1.0338059604980416,-0.3675388289303739,4.462620963946986,0,255,0
2.6120229995165323,-0.16933208451929904,11.74929162018681,0,0,255
1.0526389161006384,0.5338340102132195,0.24984907937516934,255,0,0
-0.6242252455068718,-0.2050421972637017,2.383368071799067,0,255,0
-0.5283779305931942,-0.2677438758298062,1.421376575559703,255,0,0
-1.0257730801712754,4.0463063468796445,10.221185017736893,0,0,255
1.1438727070573556,-1.6689588400184359,0.3641584897376401,255,0,0
1.2304328679035927,-1.3864237677428255,5.880288863984168,0,0,255
-0.6673613408120678,1.5773108321143736,7.179429342972131,0,255,0
-1.8864291834878775,3.5432856060109206,10.576411879601451,0,0,255
-0.012909888329838526,-0.027897410246116423,0.1013392007104777,255,0,0
-0.12883643731665667,0.031818955454241495,13.541415317725647,0,0,255
1.3221410856283358,-2.089897123174378,0.31360764629262555,255,0,0
3.789588463979654,-1.748581456417936,11.291168992295994,0,0,255
-3.2357761623906494,-0.888909032882061,11.284056190744925,0,0,255
0.746487033106974,1.7525350630895211,0.2928419424748348,255,0,0
-0.059501925918180466,-1.6046996377059548,0.2260084654724306,255,0,0
1.7203417891778812,-1.4132235091004184,0.2765525547648375,255,0,0
3.5853270081026967,-1.4448530848111658,11.332449603345513,0,0,255
-3.719701679144791,-0.95081056808161,12.107017436325439,0,0,255
-0.01793010363452648,0.0005818513675145254,3.581976784999868,0,255,0
-0.6501807940057316,1.6442444505554525,7.3208946159275845,0,255,0
3.8826090326670433,-1.525084339397928,11.787004886520805,0,0,255
1.7617607395163926,1.2789766989360118,0.4463341507125321,255,0,0
1.2815767830420084,1.2596296115629801,0.23481848987220305,255,0,0
1.734192479841644,1.7422959476444988,0.10786573725522462,255,0,0
2.007694505987341,-1.5961677126344278,0.19037222498608833,255,0,0
0.18188481541718765,0.6902946979050435,13.215982907611478,0,0,255
1.8243417987006356,2.0512990670909557,-0.02211639876127553,255,0,0
-0.5093802218190674,1.193745222364011,6.312206597727317,0,255,0
-2.5258275939143378,0.3761757725321466,7.4414671586929675,0,0,255
-0.5182041526744647,2.1647420777115856,0.3747996516459735,255,0,0
-1.75817987253056,0.16443056448153245,0.30145199482345164,255,0,0
-1.0342084749125244,4.016535406038613,10.259552464655238,0,0,255
-0.6958749216856767,-0.8590197208739141,7.280050145253162,0,0,255
-1.23611442414707,4.268411310812352,11.689368684793326,0,0,255
1.2429160229238758,-1.355290640706891,5.899291803831539,0,0,255
1.4098294400999012,0.8550901294575455,0.24892464968858619,255,0,0
-2.0824695988626494,3.99485527842533,11.164891548787608,0,0,255
-1.2029278580380707,-1.1267890212873288,7.067291659837725,0,0,255
0.1413713355972785,0.2145001452053109,13.70726991616822,0,0,255
1.6426442392079998,-0.9360257395578887,0.3034052907964063,255,0,0
-3.7075071469781147,-0.8703652736670666,11.682256997568267,0,0,255
0.9850176541390293,-0.6476687368680993,0.28156165705020997,255,0,0
1.2341455906526364,-0.5170031429871087,10.06377090773495,0,0,255
0.0161005226971684,0.033545843057682295,0.8249771035462383,0,255,0
-2.3224005349599333,0.4787701684249988,0.16921204505137988,255,0,0
3.963015543950254,-1.4695638266810007,11.553034420514138,0,0,255
-2.4486519236502815,0.23529218270115618,10.067363260061882,0,0,255
-3.8237773428612414,-1.2549460350492854,11.496548604473737,0,0,255
1.2354333550307082,1.012738782602746,0.2548317909354587,255,0,0
0.2535840358426149,0.9260223496202822,12.892047796300663,0,0,255
0.9111875588201755,2.4879827853035565,0.14824934670878298,255,0,0
1.458519756375222,1.0386040391905644,0.4371319445432357,255,0,0
0.09518482951244937,0.1504752063454992,13.60893747168981,0,0,255
0.058487323431947465,0.8915715966397759,0.09870491465283404,255,0,0
2.031958951299589,-0.8259684442623582,7.566905958744425,0,255,0
-3.1862220448327108,-1.587512160664237,12.017225559545158,0,0,255
-0.3523903470748142,0.3953449664555443,13.421269640000322,0,0,255
-1.9985812977000843,-0.6868461732186755,6.12015632996299,0,255,0
-1.8914947440987937,3.891122108426193,11.07542820656667,0,0,255
0.17337610778113546,-0.04096190720913356,3.5272797154129307,0,255,0
0.9066056435799194,-0.3755830428643485,4.2998271613895005,0,255,0
2.611652919388614,-0.31956169301168996,11.537903674156556,0,0,255
-1.7433783179297668,-1.4351922498576444,11.717608343215517,0,0,255
-1.5327433687599212,1.271783808337982,0.015050988336902577,255,0,0
-1.891630002445794,-1.309965675404857,11.687956102365414,0,0,255
-1.7079420609690534,4.010125434013334,11.622320165244599,0,0,255
-2.2564503236152076,3.6873790074661823,11.438987053256318,0,0,255
-0.3558502098080611,2.503612515699741,0.30518743009345356,255,0,0
-1.7089670610422836,0.5029825665231811,0.30008422294259796,255,0,0
-2.6521415460758218,0.6686911371843458,7.54596878316068,0,0,255
-0.11644110436321625,0.06600415494081122,13.591181843810602,0,0,255
0.28742893147165094,-1.6955610810830755,0.31239448792090935,255,0,0
-2.578640341061274,0.4774390803820653,7.468091598197114,0,0,255
-0.6804013509321494,0.36179923056284535,12.95630257164298,0,0,255
-1.2983621073090665,4.207771591588691,11.668453997597474,0,0,255
-0.1295827218049861,0.46564728999274846,12.849090905577068,0,0,255
-1.2061287329831656,4.229090039567113,11.650936754851848,0,0,255
-3.2631458725373848,-0.9195325375758312,11.35289413940283,0,0,255
-1.1613436720315966,-0.44466524167830235,0.1107219511544985,255,0,0
2.7585860771158206,-1.8819454305718004,8.555474123575635,0,0,255
0.7895806474444962,-0.21686553952505191,2.878087927088189,255,0,0
0.5107292706589697,1.5147373162207396,0.2927189088039365,255,0,0
2.027331799841803,-0.7848522658917336,7.41403849110456,0,255,0
3.6947779940946996,-0.8477695854164177,11.184256423693995,0,0,255
-3.072428107822983,-1.4910584317288036,11.132698546273414,0,0,255
3.466746314465784,-1.3252373577384402,11.225553020485133,0,0,255
3.6032512966590806,-1.8736637131311755,12.087695614295473,0,0,255
0.13220921373523958,0.708756176718147,13.177731837620648,0,0,255
0.26112988969860457,0.7559849837515906,9.922754715128463,0,0,255
1.1007267900181743,2.5016370634664487,0.13393200354647755,255,0,0
-0.21527144627626713,-1.0724974449156237,0.1926493992437372,255,0,0
-2.0680605835090793,-0.688449296824541,6.949138399900848,0,255,0
0.3322592810870527,-2.055579181708299,0.287971083821723,255,0,0
1.4307615249284102,1.4798253618013228,0.19901916485749807,255,0,0
-3.767571900899678,-0.8997613633226583,11.931306732836951,0,0,255
0.5657381243864908,-0.37910608549247016,0.2738987403578014,255,0,0
1.8241090905498256,2.028699535462536,-0.013965059868558779,255,0,0
-0.27777237494103413,0.38897223307759077,13.52422777054807,0,0,255
-2.2680713134420634,3.7970021533793945,11.41778204033041,0,0,255
-1.0225324789298402,0.1513116500494931,0.23752386818757534,255,0,0
0.9058210226315918,1.9300190473415961,0.28516460662542586,255,0,0
-1.9674835531423036,3.8499771740303568,11.350288443622459,0,0,255
-2.0796863650031456,4.080398747341198,11.143114933454648,0,0,255
1.8811537244323917,-1.3562087753257759,9.592590112224544,0,0,255
-0.30059437535409805,0.41451151267794,13.565565505724473,0,0,255
1.0980461846782321,1.6999164666488422,0.24258752737419648,255,0,0
0.565907781485328,0.6763674364466316,0.20976610768429765,255,0,0
0.14870486915289466,0.7288512526152029,13.179421399848405,0,0,255
-0.022264799766498422,0.003254717848879182,3.114543984850598,0,255,0
1.3418389025324169,0.15737535705427796,0.17327981804128909,255,0,0
-0.4157190832314407,-0.15066541894643593,2.1144760302567494,0,255,0
0.3648859910315823,1.7473846531800006,0.33953624228847207,255,0,0
1.796352339682147,-2.064682423760349,0.25410369756001644,255,0,0
2.4411875767988116,-1.5955275184425517,0.041462917548236264,255,0,0
0.39394246297420216,1.0406690172499764,0.26281775891324577,255,0,0
1.124295820131612,-0.6700723930137569,0.2928988770218478,255,0,0
3.7892394955247637,-1.796403804561299,11.2667014082276,0,0,255
-1.6008185656411493,-1.1096204127010751,10.185120305596323,0,0,255
0.5145712512090022,0.5776575654775679,12.643965442019537,0,0,255
1.4696925494933857,0.9299988055356085,0.24180808759035982,255,0,0
-0.21896328190901926,2.563351499532026,0.31806602320203997,255,0,0
-1.8020187421652647,3.9328549687546657,11.807014583183346,0,0,255
-0.620215664677219,-2.3031094976023314,0.33134963186255306,255,0,0
0.45168990818441074,0.1336441369728581,4.5395545259448085,255,0,0
-2.1277074252220443,-0.7360051888792248,7.373301607246807,0,255,0
-0.4321477486229139,-2.4926998964741713,0.27823129000348445,255,0,0
3.6350895305533593,-1.7607858215993004,11.028745614815662,0,0,255
3.5016043394932197,-1.961630880147211,11.647772535912377,0,0,255
-0.6782282869765832,-0.19180870185416637,2.3657909067244294,0,255,0
-0.17466931339316308,0.004163422527393058,13.660947845204376,0,0,255
-2.0483016383224726,-0.7033987767783132,6.803076273928603,0,255,0
-1.4181959226570817,0.053190963353165685,0.30940524856630075,255,0,0
0.6101596302404624,0.6037597058666019,12.671965961810798,0,0,255
-2.1892060371550315,-1.5435179783165909,11.467573310277814,0,0,255
3.637777548520048,-1.2657407776987963,11.287632356292626,0,0,255
3.5504283383189055,-1.8718366582108357,12.083626284534379,0,0,255
-1.9625594450252417,2.0139889519592384,9.225663276277272,0,0,255
1.035821589773379,0.865885141986197,0.24750953491097413,255,0,0
3.9603578864242373,-1.4413750551807472,11.520802033347595,0,0,255
-1.7501062945973689,0.46099191730445654,0.31500203777167474,255,0,0
0.02800470314349198,-1.7360390788228335,0.3582943150375423,255,0,0
-1.547779896497455,-0.5137959146290019,4.146434842673759,0,255,0
0.15754576335565684,0.3886126527558461,12.73300331971299,0,0,255
0.7415791861547083,1.013791814234691,0.23108820110824346,255,0,0
-0.9499119547279239,3.9664374064117043,10.892016315871995,0,0,255
0.762535700025093,1.2311467198528705,0.2647260673224941,255,0,0
-2.152301485553905,0.1427032279094752,0.28416865400363867,255,0,0
2.054513901300057,-1.4419952589801954,0.18362914992322404,255,0,0
3.6748267361290203,-1.678838130529133,11.945226164474649,0,0,255
-0.8619693716028198,0.6952442430036122,0.1521150558215909,255,0,0
-1.7546496471736224,3.926980552459294,10.260772589638215,0,0,255
-1.2949081958580961,4.283630405542239,11.234910150651658,0,0,255
-2.1821556560499378,-0.7186111220336893,8.16618528019012,0,255,0
-1.0758004392685856,-0.10986295575168495,0.2508170266793759,255,0,0
-3.4990311472041884,-1.4737819218105408,11.505951579393006,0,0,255
-0.5180094583050288,-1.6884301990256805,0.3858212385505463,255,0,0
0.4990789583507019,1.3981469376535842,0.2856980376290733,255,0,0
0.21167824748403008,-2.472753110436442,0.23355130274095962,255,0,0
0.7279329362511282,-0.26841629021456415,2.751229364128311,255,0,0
1.4506661674722434,2.0740776502135345,0.110010188268984,255,0,0
1.2965114679399536,-0.5572082778320577,10.079594346247783,0,0,255
0.9058098343579117,1.1078576203613346,0.22649491517974846,255,0,0
0.31624050418098687,1.4332074952025988,0.3205028357834293,255,0,0
-0.14221558900070333,-0.8392457888743801,0.3208833734332617,255,0,0
-3.40855431889743,-1.2014611180504442,11.477099964731652,0,0,255
-1.0137775580570019,-0.3173772980291065,2.8970244225440465,0,255,0
1.7938882739991828,-1.45136536869238,9.878847551841242,0,0,255
1.6470019244496523,0.7906934933275366,0.4395315295855176,255,0,0
-0.6778149691358009,-0.5746531410781432,2.716427915458878,255,0,0
-3.2963204291362738,-0.9445951377230268,11.341270590437375,0,0,255
-0.18903181057272378,-1.0999374007633718,0.19265153340224106,255,0,0
2.69259343448166,-0.42549879638233945,6.497044684466026,0,0,255
-0.3602724484258846,2.3217015307030713,0.3408197863449143,255,0,0
-0.7423654899273879,0.5070499532512003,6.3895424853164995,0,0,255
0.23452004208508345,0.5476515989306074,13.027533312677166,0,0,255
1.200733381436622,2.4897035458091494,0.1553991547596371,255,0,0
1.2157972003070856,-0.4122960373875362,7.8348865009669355,0,0,255
-1.6978813965464217,4.017373330821703,11.621302711906619,0,0,255
-0.1932572077404252,0.5846892320666185,13.124432244719783,0,0,255
0.13618452585972557,0.21285768080769674,13.665509396294496,0,0,255
1.3114596059246626,-0.7520951565701276,0.3025950968096921,255,0,0
1.8116972078022853,2.091143834905805,-0.033137791549518965,255,0,0
-2.73404335164998,-0.43743313289897,0.02594035391383951,255,0,0
0.24759197287405052,-1.8349719758391783,0.31497845652366735,255,0,0
-0.45161362114556747,-0.4345203112638151,12.833525674891309,0,0,255
-1.918315680704725,-0.15967997508835916,11.38658737075237,0,0,255
0.8952258325005725,0.8622686374340378,0.23559087133454448,255,0,0
0.23728378808532197,0.7930024240576574,9.963963636290252,0,0,255
-0.22434510455368453,0.5198724087009516,5.428339479705572,0,255,0
1.0813754307162018,-1.994530885041657,0.3953110822189914,255,0,0
3.750777278843051,-1.2070956110699675,11.211168032826194,0,0,255
-0.7364723136969368,-2.717585127275423,0.2312262267823631,255,0,0
-1.305553672664791,-1.0798765985858614,6.973091960579295,0,0,255
0.541682855959969,2.0286661960204233,0.302187938803002,255,0,0
-2.343561720242027,0.5656390226563048,0.16532777049022893,255,0,0
-0.5303434805569968,-0.4376381412558017,12.752117129913712,0,0,255
0.8423680211637499,-0.29236942387746523,4.181910315108272,0,255,0
0.38645290745594535,-0.6279575430621287,12.884063137284056,0,0,255
1.35037891816753,0.7695962603973378,0.25669179077489945,255,0,0
3.5597970381765642,-1.8709167781722669,12.017869821223352,0,0,255
-2.144348895176229,-0.21945626037695787,0.22976554009831723,255,0,0
-0.022659328167862428,0.030195348964639573,5.619396537061264,0,255,0
-3.6556188527722813,-1.4042646652463109,12.005135261723762,0,0,255
-1.4909765554436856,4.145220740649357,11.017409135904408,0,0,255
-2.5144549547388877,-1.101296475801338,6.0656902156321575,0,0,255
-1.4642899828440132,3.9675788447573304,11.022688021893405,0,0,255
-2.145003313806653,-0.2314770011671614,0.22747272811183072,255,0,0
3.7255799317274287,-1.8119648047341919,11.565304914633572,0,0,255
-0.18905718484541317,0.43348019996371234,13.351432173507197,0,0,255
-1.2473424144194452,4.136433185307697,11.622287969191493,0,0,255
0.24890967041378334,-1.534951168409461,0.30618263379228816,255,0,0
-2.0329577220679464,4.249911348879067,11.146345762049885,0,0,255
0.16318548583120737,1.6243906065562066,6.680601956008029,0,0,255
0.013502264031175748,0.05057014351186972,3.862514382598218,0,255,0
0.5516095230985715,0.5810430351678763,12.639268860390821,0,0,255
1.0855096429376028,-0.7667082887562271,0.28765534523374225,255,0,0
0.268539938335276,-1.1525422507872765,0.2780542787305901,255,0,0
0.6144094056475469,1.9036405859367553,6.9394994515358555,0,0,255
0.9379091845394456,2.1682016325233886,0.23531243945524932,255,0,0
0.4505700508660306,-0.05971711728286655,13.529717913959903,0,0,255
-1.68108383923721,2.0819002053246773,7.442642368562447,0,0,255
-0.02491634350717908,0.03386227733356114,1.8710158250933961,0,255,0
3.7019508008999757,-1.9034468761280343,10.91441751791836,0,0,255
1.7848246117614814,-2.036465421711312,0.2641321599252656,255,0,0
0.6449438558981877,0.8175379055604126,0.2163797424995236,255,0,0
1.3740188204275117,-1.1463135727818328,0.3129874428513915,255,0,0
-0.5807709587959996,-0.7034193704294226,2.4572494887290843,255,0,0
-3.4050491160090615,-1.6480012791698833,12.034023272176078,0,0,255
-1.3675035094241228,-0.42503976039228003,3.573688802292679,0,255,0
0.7711422900494355,0.6071866911459478,0.21220528192830856,255,0,0
-1.990687190698285,-0.46873097880349157,0.2441427761425759,255,0,0
0.3942652618620608,-0.4007985213701636,0.06286433872050168,255,0,0
0.02908199635773659,0.021337982148090448,2.3757309442717682,0,255,0
-3.467134160120124,-1.0350310955623718,11.097516333207572,0,0,255
0.6212586245705098,-0.40598603225666297,0.29490109087657274,255,0,0
-3.5118908354820406,-1.3690053893509577,11.961712332286222,0,0,255
-0.6313365433450345,0.26492218538658974,0.28365037180815156,255,0,0
-0.4477979163168465,-1.9059138447079436,0.14473585170987985,255,0,0
1.1139215448718345,0.736275115762382,0.2351405638587129,255,0,0
0.3945016644231593,-0.025238838181917973,13.564734638342735,0,0,255
1.797650732542302,-0.7024250942851733,6.462436666010383,0,255,0
-1.9342633520938164,2.3473782581412217,10.993251595753676,0,0,255
0.2032778264247354,0.48222671102922565,12.998690888708017,0,0,255
1.475351647374719,-1.0284342924741126,0.29393714652051084,255,0,0
1.5918914246845657,0.1354413463681977,0.13352472550663258,255,0,0
-0.07727315927076865,-0.5041965448843421,0.16050106619103016,255,0,0
1.1928550199421275,-0.9079955311381764,0.2975964487621904,255,0,0
3.8430313189120113,-1.5323107943088445,11.426450060839322,0,0,255
-2.2307285227303035,-0.5248958108472287,0.19795515560851115,255,0,0
0.19143226298505522,0.7736925837818092,0.1040057069909302,255,0,0
-3.827319723352825,-0.8532288459467923,11.785936105333185,0,0,255
2.870155930101861,-0.36220800470276737,6.575127037678298,0,0,255
0.1344857625452063,-0.6806288681016973,0.23629685562399397,255,0,0
-0.2782350214885285,-0.5416504141104141,2.375782642084198,255,0,0
-3.145114271317203,-1.6736609394274629,11.944779516621702,0,0,255
1.3340903818399517,-1.3964121851958284,0.39530232531410375,255,0,0
-1.8485723241817955,-0.6181764774765754,5.144749988329298,0,255,0
-3.529750440696564,-0.8607870781879972,11.371419118620699,0,0,255
3.458807899817865,-2.102916501188063,11.54063391368354,0,0,255
-0.1480892021240291,2.5917592012515573,0.3351710328154361,255,0,0
-1.6747917220275523,2.1168864241232943,7.444814532483393,0,0,255
-3.8190622100807823,-1.2946571507555011,11.502657920853933,0,0,255
-0.24823830961732526,1.5651089044409237,10.260662428761645,0,0,255
-0.06105793534587023,1.737855102454951,0.40221669994856235,255,0,0
2.9068910363406886,-0.44632495833293195,10.35934584795352,0,0,255
3.804990208432349,-1.8872668873102332,11.463847866633376,0,0,255
-3.498777159109576,-0.7395103258578697,12.050846902164244,0,0,255
-0.3082017280272266,2.6501048948573276,0.27786754384882617,255,0,0
0.9697833667110032,0.12416556317731292,11.010919215072061,0,0,255
-0.3572878649710126,3.0509789208989453,11.385645928799693,0,0,255
1.028455599375734,0.6688214917250831,0.3742376558216778,255,0,0
1.1928599328396194,0.6158412498095376,0.3889798802131471,255,0,0
0.24909040267342614,0.26300361476986117,4.373011728069387,255,0,0
1.228612707737541,1.6150617992197955,0.2044567459382921,255,0,0
-1.731141953126556,3.5665024660334512,10.8661530477296,0,0,255
-1.9922009562069305,-0.6817308800387891,6.050282292896483,0,255,0
3.1289675769489813,-1.567571056659987,10.710613614416463,0,0,255
0.6003667110157223,-0.09522129185440517,13.71103661674993,0,0,255
-0.42469670729007725,1.1263950521385202,8.651751169943214,0,0,255
0.40081341070410725,1.4934229584071184,0.3056108211519952,255,0,0
0.5723427413463197,2.380576265139989,0.27066358037186544,255,0,0
0.340731731257923,0.44753980053785214,13.444831585057447,0,0,255
-2.056509679152881,3.9397917021083972,11.333011696440288,0,0,255
-1.3445510303120187,4.287235169155897,11.201206974486663,0,0,255
-1.1501071079430953,1.1303308398380314,0.10784419850801005,255,0,0
-0.4045674902741736,0.18220420309787028,0.2410310160550339,255,0,0
-0.31737734601988876,0.5484869483662611,13.044431222839663,0,0,255
-0.3494196973999789,-2.041267075158905,0.35827320460319845,255,0,0
2.1558352561843632,-1.5987323094558588,0.134265554538836,255,0,0
-1.7750248704399443,-0.6004761825889225,5.020330917384828,0,255,0
3.929299270307082,-1.5923828689076216,11.323605123115556,0,0,255
-0.023750302987181438,0.035289455019065455,2.1258844114504707,0,255,0
-0.22150000092880223,2.652370495462231,0.29945157344267503,255,0,0
-0.6275460983858042,1.5928557223178332,7.178625163150579,0,255,0
-3.8328569919672537,-1.2107220474912723,11.509705974365096,0,0,255
-0.603202046159429,0.18148821502176948,12.394601943301804,0,0,255
-2.081614859057061,-0.6944932258601682,7.093926919956851,0,255,0
0.8716228503898824,-1.0055113073016417,0.33543718933815636,255,0,0
3.906211210499536,-1.1251677851622093,11.890225972363456,0,0,255
3.888341538491062,-1.2612804071322243,11.56822001075056,0,0,255
3.4738910991624814,-2.044053569863296,11.549449570881496,0,0,255
-0.7069085801010293,2.2376049291740867,0.406632429068374,255,0,0
-0.6316968112601036,-0.28093307777769416,1.2404903849948148,255,0,0
-1.222409174718405,-1.1418964178141537,7.080580084347577,0,0,255
-1.570845917499124,2.0594984171901536,7.392059554442874,0,0,255
-1.8700081599533442,0.915698344277021,0.2532236503869893,255,0,0
-1.6033434102285649,4.185115490964726,11.617960374663998,0,0,255
-2.2418953897099487,3.6844739181007133,11.345690829669552,0,0,255
1.525769668844231,1.3646438076416794,0.24012760271371025,255,0,0
0.16881609509537637,-2.1481775780790913,0.30273462793286043,255,0,0
-0.15697325280698213,0.5819354505156065,13.12239005176599,0,0,255
3.5273400921718756,-1.3526169356454465,11.293768990428084,0,0,255
0.4704867574098275,1.4459220515306483,0.29088155913744884,255,0,0
-0.45569806761192183,1.185703184914415,8.474840129155767,0,0,255
-3.2656032825346113,-1.6173394722791916,11.965265953138104,0,0,255
-0.7196712244639754,-2.7055633627195874,0.2308996613346742,255,0,0
2.375380443857871,-1.6723074060052943,0.04324289755362418,255,0,0
0.5226135398690066,-0.24521557454104315,3.1964022005514825,255,0,0
0.12918521640043645,0.537103004158169,13.231591502915844,0,0,255
0.4291112287911891,1.2898378740556944,0.2818023919482771,255,0,0
-3.4104629073931294,-1.6198259840238203,11.98724797309509,0,0,255
2.0678701869826424,1.488512830329735,0.40215084751036057,255,0,0
3.5250361608375176,-1.615701860366749,11.245829531297975,0,0,255
1.4204424710989503,-1.8765984923164776,0.3182217132816234,255,0,0
0.38274675023147675,1.4052106622238176,0.3002477245730935,255,0,0
2.482776418439343,1.4410762072649037,0.280108059011669,255,0,0
-1.4278893180063974,-0.49736743142869877,3.789664591364919,0,255,0
-0.6880547703194491,2.3144413421345336,0.38328940541074424,255,0,0
-3.455792136883814,-1.6670921123899518,11.987793307926097,0,0,255
0.9828071100047161,2.3059261342379545,0.19749269720538112,255,0,0
3.9014615086996303,-1.655419156112865,11.396088164752124,0,0,255
-2.4509547612621323,0.2500341238249996,7.361759761161955,0,0,255
-2.0328567498102084,-0.6612894615324901,6.4669607596736745,0,255,0
-0.7719342347171595,-0.2521028417128448,2.4672010568335114,0,255,0
-2.4316730673145153,0.1874187800377728,7.331274736008934,0,0,255
0.006873603402955408,0.05051172088102191,3.2047866145462685,0,255,0
0.5667570984285468,-2.563488568806985,0.16255412722446877,255,0,0
-0.48758594223369905,-0.40113428820788966,12.760506160636375,0,0,255
-1.1770652480063502,1.1548128845764472,0.099097812002654,255,0,0
-2.5978722236345186,0.6146109326221542,7.510466203896343,0,0,255
-1.3866001334249034,4.232625325107723,11.268910769314989,0,0,255
-0.18498710852171962,0.41911473949780276,13.290440244091588,0,0,255
-2.0006079776483223,3.8831792073899765,11.334891948101717,0,0,255
1.1857749478226562,-1.5029914550315238,5.982742048684676,0,0,255
0.8141627123504485,-1.3068448264766155,0.3581074461801168,255,0,0
-0.365231882333306,0.5136670878280541,13.511016154369663,0,0,255
-0.10721068773874215,0.0019930739616007198,13.565345410718848,0,0,255
-1.6897934181236358,-0.5435583004976212,4.4806804322266425,0,255,0
-0.32013041009023124,2.7518557682511195,9.192026145001282,0,0,255
3.8943465415703944,-1.5448280427781969,11.873149790723202,0,0,255
-0.7178347208776534,0.5368018196017809,6.385597839591481,0,0,255
-0.8123460457120055,0.4848055155199332,6.594899658558382,0,0,255
0.0080279784640813,0.05831654949905202,0.15901932149949544,255,0,0
2.3624102893829404,-1.957948680812139,11.419372391637534,0,0,255
-1.2872145547818865,4.232846175309294,11.628945399814864,0,0,255
0.09616730590562052,-0.04810393778428418,3.5144917647797334,0,255,0
1.6573007683227008,2.1219618738735955,0.015266366900698852,255,0,0
2.1535948753504526,1.490890743440167,0.3755111658339799,255,0,0
-1.7533180506191397,0.1188856898605361,3.8932802864704605,255,0,0
-0.40290814535708575,-1.9608030204174254,0.12278117271588382,255,0,0
0.47598017640455276,-1.3614570910144075,0.3382431080812859,255,0,0
-2.480905298045743,3.7796465119438527,11.441046085182775,0,0,255
1.6399666851181691,1.3594952389298698,0.19956160372634496,255,0,0
-0.1579997302347822,1.4599745826256114,0.36000773625736804,255,0,0
-2.573027187448983,1.234683566608864,0.03968198511246724,255,0,0
-0.020529887645294047,0.03611124100758961,6.34333244148495,0,255,0
1.8278665963922858,0.9219771739246553,0.4393654582223955,255,0,0
2.1531280342947587,1.0411428062288524,0.4191857523094953,255,0,0
-3.25438114125428,-0.45476526043598775,11.692750031799527,0,0,255
-1.925451308823313,-0.6449556991677916,5.570374668950505,0,255,0
3.680277858063288,-1.1887036492927372,11.304025858281772,0,0,255
-0.1611323042200966,0.43259255198911617,12.77070394388345,0,0,255
-0.7808699650944593,-0.1330781836933,0.2565831574153469,255,0,0
1.428510166853298,1.208105693475133,0.26884716198001873,255,0,0
-3.5398009553088903,-0.8231996261533991,12.049070763197568,0,0,255
-0.9038150471906715,-0.30122059120227934,2.6451752068575964,0,255,0
-2.686169281335968,-0.4843853309715716,0.03724469936872885,255,0,0
-1.6300922234177846,3.8133682088769123,11.028482192085475,0,0,255
-0.34549322095016155,-2.0763230386643294,0.08508588788240365,255,0,0
-0.5836549287569465,-0.6979891708445165,7.018639355317523,0,0,255
-0.11760061056710827,0.484779829500809,12.779619711103054,0,0,255
-0.7874960404151956,-0.3627453414257662,0.13339696177205448,255,0,0
-0.022801992729735716,-0.007090361644598509,1.2132470269869997,0,255,0
-0.41112792817074434,0.9830473926782667,5.9272239747969575,0,255,0
0.8561012730460871,0.703423828206081,0.22675767236055638,255,0,0
-3.505223035816848,-1.6666460814015547,11.97093692402093,0,0,255
0.03635389207354817,0.34189246260715966,12.881723206681372,0,0,255
0.07448641154725943,0.2314917694599099,0.21794625364756917,255,0,0
-0.8166579024014531,0.538701098960116,12.952528700716197,0,0,255
-1.9586131063033947,-0.4541553584214735,0.24807322658737474,255,0,0
3.586781927311506,-1.8213865386056487,11.328413730103222,0,0,255
0.47541900793914377,-0.109225443733291,13.49601455472774,0,0,255
0.5421869955232252,-0.20574730901944507,13.031760618445217,0,0,255
1.6783499039839858,-0.9250631786080699,0.30693518937627623,255,0,0
-3.6462346895873345,-0.915963624278685,12.151772967286309,0,0,255
-3.7937960374581423,-1.43861003538966,11.63025642235231,0,0,255
-0.4809585098098976,-1.7350562700702319,0.3766792497897613,255,0,0
3.5828685592136846,-1.8397978682740117,11.948009857227555,0,0,255
-1.3781121191006498,-0.42817229443073923,3.5531799330404152,0,255,0
-0.7995146324189228,0.2997757740959019,12.914055087708686,0,0,255
0.02587639636198591,-0.0038532720375375946,0.9712432866764116,0,255,0
1.4533428135181583,-1.3184398602969365,0.3294924500071097,255,0,0
-0.20777884204725264,2.4021173080455265,0.3493545800767762,255,0,0
1.432011952808362,-0.03770810261206302,0.20649683870601035,255,0,0
-1.0330742583685946,3.9312509978715635,11.053742705997744,0,0,255
2.198494242342793,-1.700605334326279,0.11295177228121772,255,0,0
0.26248907725308057,0.8670163895796152,10.103103122909374,0,0,255
0.021472594673561357,0.022736468921319614,6.790712609509042,0,255,0
-1.9608996071174027,3.8551594173007997,10.987565324255188,0,0,255
-0.5383270594248734,-0.2914706491648761,1.4055893249519307,255,0,0
-2.1881072964221118,3.673337682704311,11.408468693297548,0,0,255
2.365250539844671,-1.6931689574895183,0.04541426006966236,255,0,0
0.1443213908703871,0.4499544022550983,12.772547966740134,0,0,255
-2.0904240300618993,-0.7008895404803782,6.7946433654976985,0,255,0
0.4620627393082808,-0.04270569115287627,13.518970268749959,0,0,255
-0.4489047475341583,-2.7023857670829736,0.21694551962780179,255,0,0
-0.050303553733861674,0.025575081922527845,1.8506808272629027,0,255,0
2.642406436017521,1.4856029992437478,0.2417623582100334,255,0,0
0.7413630102823597,0.7313162839252825,12.532798693685617,0,0,255
3.880406940224264,-1.4504192407424243,11.42859581980026,0,0,255
-0.42987846601645197,-0.34306975780463955,12.834889723923599,0,0,255
-1.2180979029426355,4.151703391773559,11.489660182764268,0,0,255
-1.979026857325903,3.758324616176047,10.97736197689127,0,0,255
0.8525058364125738,0.12689299971801754,0.16161288809259522,255,0,0
1.242608330071751,0.5480638427268043,0.41060557922824414,255,0,0
-2.050996102677686,3.9519494917403772,11.337580716233958,0,0,255
-0.7374996903867749,1.8086307254978506,8.006928937020641,0,255,0
1.7732714780572365,-1.468346330240203,10.005811711354738,0,0,255
-0.47930447695101575,1.7569629431685276,0.397852518528205,255,0,0
-1.2006883923517981,4.3088768052332815,11.783641230295006,0,0,255
3.935731002487562,-1.6611017979644016,11.290364303430326,0,0,255
-2.1908577786542147,0.5436087956866049,0.20933812265904997,255,0,0
3.884197680074926,-1.1461989590077912,11.916944594486724,0,0,255
0.052539336593580864,0.5002711630234217,0.09122385060493367,255,0,0
1.858972732446601,-1.4683525072555903,0.23874044232485903,255,0,0
-0.01692296898240537,0.041343194037835644,6.98970788031245,0,255,0
0.5595216580172009,-0.7468735756333648,0.30325098767078373,255,0,0
-0.2033374474097896,-2.4047136676322465,0.34052061809425604,255,0,0
-0.48344035164061827,-0.23158370239863985,1.4929722428954193,255,0,0
-3.5098195220044808,-1.3911647026648666,12.070304148155795,0,0,255
-1.233544965323765,-1.1277924032485984,7.038767128909901,0,0,255
-3.2654172569738353,-1.6798620167838418,11.154734233254954,0,0,255
-1.4700761161449143,-0.4926217765950579,0.2995294877143646,255,0,0
-1.1134195387646086,-0.3741987779285398,2.977436254130553,0,255,0
-0.9417096003786837,-0.2044115556103252,10.733680930154303,0,0,255
0.30909472309174935,0.19379334635290513,0.2810247110565093,255,0,0
1.500428947179831,-2.271111982900286,0.23875007261811726,255,0,0
-1.1080235351558496,0.2366113052657596,0.24227715740152364,255,0,0
1.1789040601875183,-1.5037465622502961,5.99419380350013,0,0,255
-1.732196321059574,3.570657043976855,10.896657794413063,0,0,255
0.5673008500390735,-1.7139240079096885,0.3534631827447783,255,0,0
2.1262804502911696,-1.3800886652101343,0.17707397113374543,255,0,0
-1.262508637177139,4.21772449661071,11.705605695690581,0,0,255
0.40214252782556004,-0.5479226738128231,9.371519023452095,0,0,255
-2.374437325909676,1.045347040744311,0.12226919675586774,255,0,0
-1.5788856618559053,0.05834398747662048,0.3222380560163403,255,0,0
3.7813807140419504,-1.264508545513525,11.187255463151766,0,0,255
-0.5901759617911693,1.4729414094004678,6.834164868972386,0,255,0
-1.8346254806944255,2.0096804227878518,9.195768970948109,0,0,255
-3.6555998809662764,-0.9548736946348588,12.112549083491711,0,0,255
1.8484009701737665,-1.3868946191995837,0.24202790419728204,255,0,0
-3.18308271857366,-1.5230990616514388,11.961521619439852,0,0,255
-0.8566090942880367,0.5592850315131755,12.946339444340147,0,0,255
1.0334449133974484,-1.7274185595919564,0.3853723812538471,255,0,0
1.0674743038070305,-0.4354881286055256,4.576844253318433,0,255,0
-1.9612360235327624,4.140995306643834,11.087319645357637,0,0,255
-2.234032165690734,-0.6334166273190536,0.21719005491535165,255,0,0
1.172519693818244,0.5809894930583025,7.853617645039908,0,0,255
0.9958694066739158,1.556784927651809,0.2579703619816418,255,0,0
-1.4579004288768278,0.3310827762380308,0.2731721347053386,255,0,0
-1.3616566398969818,0.6291486340145594,0.2717073878082192,255,0,0
-0.3322969169018382,-1.9553475199287447,0.12288473723841935,255,0,0
3.876989429967454,-1.9727151033615167,11.585694298120305,0,0,255
-1.0897832926147466,-0.28086886259928506,0.25566794032359674,255,0,0
-0.464561555887834,-0.6113419064265946,2.4665097238920635,255,0,0
3.7010058973641797,-1.8868020451230367,11.79333637615932,0,0,255
3.9984422843419862,-1.1683733519041666,11.956113838700963,0,0,255
-3.6664933079387385,-1.4092404174218673,11.92515721375943,0,0,255
-3.679978622945807,-0.8988132382602847,11.78910879720335,0,0,255
1.0753418355073574,1.4459604936819597,0.23064516076165226,255,0,0
-1.9420273750039918,4.1922184578839055,11.093156765584355,0,0,255
2.4207220521502517,1.3741990411552445,0.3074819033278399,255,0,0
-1.783640507121371,-0.6107256727475425,5.050787824953606,0,255,0
1.09954315626227,1.019623620062724,0.2735148551965131,255,0,0
3.661314988159499,-1.8384130182501432,11.72920491879694,0,0,255
3.793642522597364,-1.6747637992623396,11.19574098826222,0,0,255
-0.9324516273969929,1.0478111327920954,0.14454191735536087,255,0,0
0.7358703893634357,2.346151904528631,0.22003160843449746,255,0,0
0.41934612481890154,2.010801526835376,0.3407635259129713,255,0,0
1.12250810117891,1.7692305998840665,0.2403590517282656,255,0,0
1.041248643609699,1.8055365633303277,0.3398553424652281,255,0,0
-0.22536065602740885,0.5717904261833326,4.74691385017862,255,0,0
-2.7161287014768476,1.0240156118988222,0.02449540031861623,255,0,0
3.875901969617054,-1.902692655984426,11.56055242209641,0,0,255
0.007211519083666145,0.4834140546052732,12.961447371394442,0,0,255
-0.23411425461831958,2.6420399729754913,0.29778940633767814,255,0,0
0.6926430937287734,-1.1747001420973475,0.34903080786930973,255,0,0
0.3907484307385862,0.4410340130493602,13.358721522217698,0,0,255
-0.05752794443260173,-2.052147136760875,0.4146115682922244,255,0,0
0.25812570336227003,0.5538433024410219,13.036952371247132,0,0,255
4.102651579500932,-0.9589036887490069,11.541345427185789,0,0,255
-1.7074339525733204,3.912788342502649,11.07813023852901,0,0,255
-0.15715536236296573,0.717587484044041,13.104006550609805,0,0,255
0.3817872780468571,0.30509146963259004,4.435027996150491,255,0,0
-3.688376753552483,-0.9119335263653698,12.137622581411916,0,0,255
-1.5810842088733232,0.7127682170232159,0.2714800671025832,255,0,0
1.6401185589748861,1.1225070790495937,0.43939539516388465,255,0,0
-2.008616057473531,3.6457587425636984,10.563094059363513,0,0,255
-0.7921474589156243,-0.30867494556698105,0.13275761652230877,255,0,0
-2.0668639191549394,-0.08313812152546854,0.2725088907839615,255,0,0
-1.9680355889289483,3.885116585422285,11.36076080462421,0,0,255
0.5561775456934945,-2.3969884794891794,0.21346904042324644,255,0,0
-3.7067410492002306,-0.9727104117553156,12.18364112289441,0,0,255
-0.3856993104386087,-0.8701961072528315,11.945921034671308,0,0,255
-1.7341627121958965,0.340246401405469,0.2778863283396692,255,0,0
1.6172113213957167,0.679801093058028,0.4548644116932326,255,0,0
-3.527307487651692,-1.3287599332089313,12.007823179836175,0,0,255
2.469293427166816,-0.16142804030854244,9.227172571290303,0,0,255
-0.5288919784572644,-0.6385711392050323,6.859930650310866,0,0,255
0.6020958062797087,-2.0072402692250435,0.3242915333807077,255,0,0
-0.14213589751640088,0.4680954707548062,12.799468366343474,0,0,255
3.9153579214993686,-1.6399447352622767,11.384529072305144,0,0,255
-0.20843857762518253,-1.3852088130111428,0.20295591897928705,255,0,0
-3.080382415574813,-0.8970811012908227,9.292363107725391,0,0,255
-1.2807750404782454,4.159854386015867,11.558960373215525,0,0,255
-0.2345811370568573,-1.5579781206416994,0.35837174546016415,255,0,0
1.5657691404244307,-1.2703410287678698,0.29864825393550853,255,0,0
-1.3100445786127803,4.212851132261443,11.194512775634255,0,0,255
0.0028904400165716444,1.9458528273249533,0.4326613630878838,255,0,0
0.7221257686549662,-0.3862462671220522,2.831787619713807,255,0,0
-2.2446396278174117,0.22632036439854872,0.23893942081403213,255,0,0
-3.166883922619402,-0.9088538172747523,9.339735662505912,0,0,255
-0.25276037511064536,1.6043513655162933,0.36695444478105144,255,0,0
1.1926449785619329,0.5366354293853327,0.40296858852340617,255,0,0
-1.262351842314013,4.042450184958678,11.015264363559124,0,0,255
-0.23426732285325308,-2.7454465600795577,0.2649333283778721,255,0,0
0.2919231941482414,0.599657986439192,13.096580052107154,0,0,255
-1.679167603528191,3.5595718135089447,10.947873767471446,0,0,255
1.7596576115259466,0.9087957841567331,0.25139732259106284,255,0,0
1.619904346153799,0.8533180379402916,0.26211203802225386,255,0,0
2.470046215488247,-0.18825880980303886,9.19822917433924,0,0,255
1.9642988737313796,-1.338835584593554,0.21888586386795358,255,0,0
-0.5023448364254346,-1.7529174542229686,0.3802923921178927,255,0,0
4.0739476946593545,-0.9840727941997948,11.552991292219943,0,0,255
-0.4505894291761447,2.369961100296102,0.33141884555947243,255,0,0
0.09854716644756265,0.15535566317391472,13.652696733053359,0,0,255
1.0990480835368075,0.7031617723172988,0.38140734781829017,255,0,0
3.1406255148108366,-0.30600034748049443,6.672381890931205,0,0,255
1.533910264221661,-1.2313011718113773,0.29950661853155824,255,0,0
-1.7101233589702183,-0.09918302241087566,4.186864342564963,255,0,0
-0.41581809055227803,1.0843809501283237,8.70416294777679,0,0,255
-0.41832383509389925,-0.35911679386681017,12.778778643369659,0,0,255
0.21284470742506548,-2.44923634728091,0.237908853293446,255,0,0
1.2898949810517362,-1.2360600257932175,5.774000496086426,0,0,255
-1.5325056835537851,4.088508766086906,11.16966231243268,0,0,255
0.5907090572899758,1.163628227779201,0.29621247790245225,255,0,0
0.0015532366686951795,0.04757138278902618,2.333328204784795,0,255,0
1.9522403016653969,1.439705593774354,0.09232456309554092,255,0,0
3.6803878113381026,-1.6381968946223902,11.947899854690924,0,0,255
-3.706167737209851,-0.8669558989837943,11.896260913325813,0,0,255
-0.0020842745462441616,-0.026096946633065412,0.2709343620727782,0,255,0
-0.5798897997465999,-0.28179249451950594,0.12083379690337744,255,0,0
0.17748229018748207,0.8919973671092783,0.08812121326027757,255,0,0
1.3860843570248158,-1.8260511322965147,0.3287042641787394,255,0,0
-3.5510279223292835,-1.3992886018983213,11.973938261591687,0,0,255
-0.1315863636121428,0.38356961131921885,12.829964844682227,0,0,255
3.6087307287990065,-1.8850202342549536,10.927835119002378,0,0,255
0.39096755793968685,0.34627526590239543,4.419552722204056,255,0,0
-1.713343237666372,3.954020984305047,11.647140642380755,0,0,255
1.005370063106875,2.1939040868398254,0.23344001553289398,255,0,0
-0.06527825087812415,-0.32588047408053167,0.16301848038987074,255,0,0
-0.5526756286432055,2.7973252298510243,0.2141596465498595,255,0,0
-2.1694259705955243,0.1892435277650763,0.26476888237971097,255,0,0
-0.4768036073977085,-2.2485245975727572,0.3302013395145543,255,0,0
-0.43686887931290097,2.582129074220746,8.91005759070362,0,0,255
-1.281409604013934,4.29114157624901,11.159066131933987,0,0,255
-0.019749217661677615,0.02434054899741667,8.806630194267326,0,255,0
0.017798479045420094,0.040679304906312316,6.854457568855255,0,255,0
-1.363734383994783,0.3532724072271068,0.27099051039149735,255,0,0
-1.389659709887198,0.4021584070206143,0.2987464082013897,255,0,0
3.903539076837774,-1.341451425233803,11.54406222253273,0,0,255
-0.0059402720626019045,0.3101689148866128,12.846729213899515,0,0,255
-2.5801804595634135,-0.3979712887323563,0.08482649892488217,255,0,0
-2.4414167936140787,0.940931984869642,0.12184488493890032,255,0,0
0.6558521794674721,0.09087210251940472,4.573095326865127,255,0,0
3.596820456784132,-1.8594305793052537,12.166795863395016,0,0,255
-2.0042958676320497,0.8963732448209107,0.22958014893204717,255,0,0
1.8120601141836312,1.2472493266957114,0.1536590329160727,255,0,0
-0.25924275207693626,2.4016112372754765,0.33880427341899266,255,0,0
-0.6771240752309748,0.20009382190791247,12.466790051295632,0,0,255
-1.1808353863725296,-0.6355679228876325,0.10037962526532035,255,0,0
-3.5853952134815747,-1.5575990912206006,11.531913720860176,0,0,255
-0.47674273600291495,-2.1256291665854024,0.07713966546014372,255,0,0
-3.4702101169591346,-1.5011116371276172,11.48849948451953,0,0,255
1.1095568066179164,-1.778194723235909,6.20759383346476,0,0,255
-0.013952431640890148,0.044556833535013274,7.022347849093066,0,255,0
-0.5133652294998664,-1.8879368098226736,0.16375739848052168,255,0,0
-2.448280006825027,1.1501085692597361,0.08783202058612478,255,0,0
0.6114987020176759,0.7054365422313622,0.19934921177723158,255,0,0
-0.2765076825809568,0.5634920055219057,13.054677389137606,0,0,255
-0.26346709916542194,1.5225809081183397,0.3611127966675778,255,0,0
1.4648198068539362,2.0760825363616746,0.10325047735017262,255,0,0
0.8491046285921711,1.4856842477163212,0.33611127573107263,255,0,0
-0.9017510925478167,-0.21802932753080229,10.672811381665337,0,0,255
-3.430349151229425,-1.2324948237916127,11.472972596632614,0,0,255
-3.672414583756548,-1.2374306411744498,11.728322270297433,0,0,255
0.22572211710226084,-0.14229901357623279,0.2273775379585969,255,0,0
0.9262135439420541,1.069993722181612,0.22503106746881818,255,0,0
3.690704987408626,-0.7863476143286863,11.138875222949723,0,0,255
-1.7649984088398418,2.353180888944854,10.831259545410315,0,0,255
1.1407258736682309,0.5317121259078268,7.80895307547806,0,0,255
-0.03800714518698063,-0.28233438574158554,0.2703261183373205,255,0,0
3.463671816402352,-2.004447280772543,11.574905557147357,0,0,255
-1.221183928125933,-0.4015053669133343,3.174952784903137,0,255,0
1.7820570701395684,-1.2805222555837037,0.2593829468320055,255,0,0
0.4957556898144096,-2.5551677266410757,0.15522771970145208,255,0,0
-3.3322404368584153,-1.157540986562886,11.495657875338303,0,0,255
-1.3544153616239103,1.2207212802345708,0.0545541966155305,255,0,0
-1.6674659366623414,3.869196078482963,10.397678990554656,0,0,255
3.7448719811235938,-0.779986599714626,11.197342342240752,0,0,255
-1.8051523014430937,3.8425570578880093,11.810197764448038,0,0,255
3.692054768952289,-1.8461268316536128,11.798201516800155,0,0,255
-1.331575073535706,4.217309456786666,11.084242233882408,0,0,255
-1.4858627423576851,-0.3200846518259489,0.26105382321820736,255,0,0
1.1695520214759827,0.5842537403178587,7.872325769262664,0,0,255
-1.2628470551452513,3.985843190477448,11.037238725297122,0,0,255
-0.6364727926925728,0.7134697020075459,11.430746959534584,0,0,255
-1.19887482796708,4.199124867760038,11.678148129144997,0,0,255
0.9247996586876537,-1.1198371062732553,0.34282038038339635,255,0,0
0.7350213546096827,1.1103581892833359,0.24874347605305136,255,0,0
-3.4380187658125996,-1.1978948555519464,12.348490629486381,0,0,255
2.2299719246205094,1.022146537557263,0.42398790636610967,255,0,0
1.361363771357663,1.9973453239185486,0.15100203347857322,255,0,0
3.9519426030083844,-1.209585475223999,11.666386164691382,0,0,255
-1.2172089475635368,0.8879465133946454,0.15864576289046775,255,0,0
3.708218137345375,-1.8232527131740912,11.748864579248124,0,0,255
1.0911897076110282,1.6105387022851145,0.23913263406076346,255,0,0
0.018620965494619512,0.026722094226881557,0.3231646007187362,0,255,0
-0.9700963526964285,-0.2908224777337252,2.8019460270267267,0,255,0
-0.42250244435783757,1.8928753337857582,0.38488374624866895,255,0,0
1.6538397102255402,1.6264811470408962,0.1547842132865087,255,0,0
-3.8433386414977724,-0.9181857064751348,11.703301104603984,0,0,255
1.3644275397625183,0.06855625684964575,0.18092383652110047,255,0,0
-2.0493532123104576,0.7602555397268587,0.23906002016930866,255,0,0
-0.43448330580692984,1.1229820509845199,6.137310555543074,0,255,0
1.173306059498311,-1.7486540746389898,0.35956717775915203,255,0,0
-2.4122090174148196,-1.0238038527749123,5.923627850219648,0,0,255
0.19393223501919432,-2.1198521461363855,0.2997109471606596,255,0,0
-2.579513202471004,0.8971803754879615,0.10064513098961067,255,0,0
-2.0689544613526727,-0.6737680129484669,6.691180913042287,0,255,0
1.506940444492746,-0.91933376549258,0.2985871191470039,255,0,0
1.0885474314120156,0.23313540917731057,0.18722094694078845,255,0,0
2.090837157716686,1.5230010786609491,0.3990295780027674,255,0,0
-3.8245777623156134,-1.524078884577144,11.645622386093155,0,0,255
-0.8794619310057618,-0.3122349651783774,2.694980853629886,0,255,0
-1.72466982520847,-0.55569355871406,4.614082788202189,0,255,0
4.045385241480768,-0.9056991616672413,11.527777035117312,0,0,255
2.009193280487172,-1.661148068535788,0.19336316331110537,255,0,0
-0.0025402405685916274,-0.008561272995932217,3.462850061714783,0,255,0
0.9263407851645503,2.4984646580884116,0.1423938465784053,255,0,0
0.10056665223518704,0.796655771856523,0.09879545731748443,255,0,0
-1.8401527245763079,2.040013784954647,9.193139710842392,0,0,255
1.7523931387743679,0.7763561174978059,0.45662118999669943,255,0,0
-0.9835801600790169,0.40254523493215,12.965843816946757,0,0,255
1.4103833043254497,1.059414094762195,0.4442458261507599,255,0,0
3.9358849228120745,-1.4547228177018623,11.548604922301605,0,0,255
2.4573131488145443,-1.667516918066049,0.017460677653774726,255,0,0
-2.190029233681359,-0.7384359070122649,8.428595590690534,0,255,0
3.9143835441219785,-1.4213542835298034,11.21837727390722,0,0,255
0.12803175099474978,0.060652721215214395,0.24180384201471639,255,0,0
1.8974499433070342,-0.7530666229909712,6.729946951064133,0,255,0
1.1582809869351611,-0.9044541924551386,0.29973029191715544,255,0,0
-1.3253408023732125,-0.4410593979833466,0.2928364898926427,255,0,0
0.11854567726893514,0.7130610495802916,13.27539452873836,0,0,255
-3.5493626052333864,-1.3724679817457854,12.018493862426617,0,0,255
-3.1084987494142355,-0.9289896075206485,9.326996943615365,0,0,255
1.9155776045226327,1.3744046113610828,0.42877893030066094,255,0,0
-0.3859427680283427,-2.26943389229992,0.3288961250743343,255,0,0
3.4504136825297635,-1.6091014394368501,11.243002827030933,0,0,255
-1.071690525250929,3.800892605216679,10.530219335449416,0,0,255
-1.74038517310199,3.917027901316363,11.119356227522115,0,0,255
2.347390624518477,-2.0177886923270254,11.463754504232202,0,0,255
0.6710906323981712,-0.2779222881906168,4.035428214319086,0,255,0
2.119657770820374,-0.8402447665713186,8.036656106415998,0,255,0
-1.5263860757306418,0.41378901804654905,0.28304625278052004,255,0,0
-0.414085536616403,2.605834098529896,8.943247844480718,0,0,255
1.8125039542936725,-1.410542841326326,9.83965732110834,0,0,255
0.7830323389673682,1.579835748764955,0.3100380412460181,255,0,0
