-1.66427663228977,0.7099261707536105,19.323261780037377,0,255,0
0.528774158640926,0.3222568181510286,20.59472211520989,0,0,255
-8.570379051115324,1.7911936394843537,2.976149307979984,255,0,0
0.42380304635472404,0.3160949131797862,17.60190530854656,0,0,255
0.14018352735048564,1.5436558351434988,21.935539943527658,0,0,255
0.8354555051544583,1.0731958612527817,18.409096154008196,0,0,255
0.7348736710654107,3.6840765268922118,21.93371431207077,0,0,255
6.223648484011881,3.7562783382609464,3.048634343426172,255,0,0
-1.714323738058039,1.2401630590061172,1.2283179415998224,255,0,0
0.3914350682034169,-0.5764711034292443,8.783637149383233,0,255,0
-0.8517274211823709,0.5403178678356668,15.332414956247163,0,255,0
0.06671788145290393,-1.5029121272317953,17.178723626479666,0,0,255
-0.8786567664403583,-7.246196044555447,3.693742656898249,255,0,0
-0.03919305188863484,0.7298547269991549,15.840093147943245,0,255,0
0.20735099473778335,0.9254255429877987,18.86723682252406,0,0,255
0.4499765208267865,4.132100120132543,2.7693172974915186,255,0,0
0.4384875283442135,-0.8712919600004232,1.5141810377624858,255,0,0
0.2962776479877759,0.49443940136272113,17.616640277581222,0,0,255
0.4901225349915029,0.1919178451135707,22.410364933366758,0,0,255
-0.8567185911882105,-0.8825508020851532,21.17680012601995,0,0,255
1.9086325762421588,-0.4421672749095622,1.9995417324065958,255,0,0
-0.043752403214876716,1.6467422080127951,16.899353499466052,0,0,255
-2.4291517831665494,-2.435472473095524,1.6506669077730531,255,0,0
-1.8376334889529606,-0.4946332469897094,1.7665014708491604,255,0,0
-0.5361515085642294,7.818239345026209,3.126009569730052,255,0,0
-3.084385240787061,-2.279613593819207,3.3174863050469003,255,0,0
1.7963358079888596,-3.9477905874142576,2.4601713889137153,255,0,0
1.3559209022460679,3.4000077844254704,17.318643055380925,0,0,255
1.5163008480347098,2.9287150874491514,17.93970472699862,0,0,255
-0.9380473676097687,3.7029032798851347,19.660283566835727,0,0,255
1.2647053084645656,3.03052862107716,8.122152078828034,255,0,0
-0.5727937628025023,0.23674455941967334,18.37253816259789,0,0,255
0.8709947680488647,1.6908412565158413,19.251994349162906,0,0,255
-4.387910054020413,-2.564180837930876,3.7412579117519664,255,0,0
-0.08374267315817102,1.159163081449235,2.1019710828324665,255,0,0
-1.0830923173351783,0.5157150479825983,16.152250318353634,0,255,0
0.42993519019700954,-2.9522945689093465,18.138326039232936,0,255,0
0.1957785070664753,0.36931202380911876,1.065011390856068,0,255,0
-0.9359800512721536,-1.1495837355654894,1.2404635780379372,255,0,0
-0.7898646566630138,2.185777492068488,21.991468456117836,0,0,255
5.7047450928961405,-4.786080276613383,3.813870561740882,255,0,0
0.19962720266963307,1.1226569935226889,18.5786436912628,0,255,0
-6.715478646932641,-4.672721132019742,3.9158324990966182,255,0,0
0.879544699113213,0.7937223280023562,18.903682914933825,0,0,255
-1.3482636446164535,-8.245676072455229,3.558423119975352,255,0,0
0.29716718552623966,-2.448408139429074,17.500799366285722,0,0,255
1.0792827591526124,0.5229995736571876,19.11156604420558,0,255,0
-6.093898248303277,0.8773548571173229,3.2187774988875204,255,0,0
0.22417796120843353,-1.3886836354188126,11.061750706808219,0,255,0
1.4973277497153716,3.54587416433577,17.9088193224667,0,0,255
8.790697462581452,0.5376814775522922,3.4500240428481392,255,0,0
0.15115721438617274,-1.6959497647070731,12.423138248436125,0,255,0
2.029458483934896,2.188398421209685,8.333421353362576,255,0,0
-0.8951624725399832,4.366930095861249,19.574641416418842,0,0,255
0.008689629446091933,-2.924641045276872,18.51114194454523,0,0,255
-6.375629839066907,4.895427300083896,3.5893836629696834,255,0,0
-3.2412926418665577,2.6194331661746024,3.2915015927125513,255,0,0
-1.544331206549411,2.1767071042944175,21.07208433077247,0,0,255
-0.23568418923294177,0.4674072844469224,14.410861441723839,255,0,0
3.2827940663512627,3.287152257354225,2.6086625055912727,255,0,0
-1.6860326830861518,0.9544705342311077,18.711445017145234,0,0,255
-8.90855169707844,1.4853954507965836,2.95034959191164,255,0,0
4.616528730483953,1.138224580885937,1.6106855811906358,255,0,0
0.037526710248547236,-0.02309371997845714,6.01298147474646,0,255,0
1.98310983490058,3.4614951535408562,17.300298479502658,0,0,255
-1.3936956834333456,2.31633177854676,21.686133791528157,0,0,255
1.0720239467438086,-4.734206725850958,2.7350570531813743,255,0,0
3.4391474033665546,-6.38644980698761,2.7974784714386107,255,0,0
-3.556365292609946,7.752057868631444,2.203185430164617,255,0,0
-2.1477220134305717,-0.14593486112754436,17.386421645610774,0,0,255
-2.0111747025402265,1.2912607118712518,16.959781972286954,0,0,255
4.457605110984063,-4.672232586080109,3.7070757505506613,255,0,0
-5.900368683483518,-5.568238049987403,3.805596975279938,255,0,0
1.6614954478075261,0.5787191436391188,1.221481846906333,255,0,0
-1.7853288205046702,1.9600736800692786,20.8811013158848,0,0,255
1.2039816476580452,-0.2726638531888234,22.26724821908396,0,0,255
-1.6181579874457341,0.5252853211725957,18.617959002332427,0,255,0
-1.4638673848712096,0.534356202364105,18.7121286418382,0,0,255
-1.5174364051186555,3.7952809214869525,20.040425176305575,0,0,255
3.5884246251081677,0.7897983330216847,3.15144503177155,255,0,0
-0.23068576358497297,1.0996938375754401,20.065198463270992,0,0,255
0.06261785065290594,0.8643200336028867,20.31404391532394,0,0,255
-7.682128154972589,-2.199361729343141,2.7325228498506817,255,0,0
-1.0342009738790974,2.1971616662988565,22.303365498193,0,0,255
-1.2672477823765236,1.8938005150352075,20.539402563393388,0,0,255
-0.6322689664791559,3.621566137343009,19.045515322923602,0,0,255
-2.3154714045770164,-1.4742537976708114,11.175914220601886,255,0,0
-0.15539298583582814,0.6247273747792824,12.939487658970496,0,255,0
1.2965747394645155,7.237807365162242,3.217145702965451,255,0,0
0.30077304759456225,-1.9286378196264065,13.215799325298917,0,255,0
-3.0462446746396967,5.374607964510101,2.4102783066147797,255,0,0
0.11356605854883203,2.0055693442510045,20.70515805923203,0,0,255
0.7803602913810691,-0.7988457062029464,21.91871371926934,0,0,255
-0.065687086398554,1.2777546247159568,18.65636098194098,0,255,0
-2.5413528699701384,-0.9940499742153751,2.0030870423360003,255,0,0
1.3644300093026174,1.0222002001775403,21.805750395524274,0,0,255
-7.7350606847031,-3.1664702975445866,2.6848558832818816,255,0,0
0.26531035919851265,1.050385780972429,15.700416507965286,0,255,0
-0.2676552632445325,-0.3132163077444799,0.9022379881314164,255,0,0
4.481895561074468,-0.9466238519146402,2.5645377870513704,255,0,0
4.771029304973149,0.9760319601413889,1.692344191481614,255,0,0
-2.4613491545295925,4.282235434685594,2.278803681261856,255,0,0
-5.701933228350361,1.557968101487711,3.0979877444446737,255,0,0
-4.174262039904092,-2.708969029567709,3.6673276169909297,255,0,0
0.753439990079923,1.353986369351413,18.86867615789716,0,0,255
-0.13895965977683894,-1.9621008941477873,17.09711958229756,0,0,255
0.6418180241446642,-2.327480591718763,18.04791438549821,0,0,255
-3.995955544796976,4.3227679979253075,3.540203947527427,255,0,0
-0.19680542864806588,0.5997530184745052,5.5038779414974845,0,255,0
0.0594968140167787,1.161400198665391,14.792632576036526,0,255,0
1.3712682573312964,0.05220179963308704,22.010802078192913,0,0,255
0.4151794343090055,-1.7947779188977495,17.342207308559864,0,0,255
-7.835829497513763,-3.0405706691604033,2.651151810874991,255,0,0
-1.9185106905054996,-9.420627661964286,3.2368059229588484,255,0,0
0.21521706431690893,-2.706010502593661,17.33597582198423,0,0,255
0.8100801677249013,2.0287243041491676,12.445464234026563,0,255,0
0.20914504507163323,0.32629744602651756,6.856312825221462,0,255,0
4.574788190227314,-1.6529071375057125,2.7878250078754845,255,0,0
0.446377222017582,1.376341584602729,17.1279041417192,0,0,255
-2.164805810614236,0.4136550050923806,18.59590727693277,0,0,255
-0.1042304185112835,-1.6437662399362463,16.816123610355827,0,0,255
-0.542047047562365,4.18986819846738,19.228402721081427,0,0,255
-0.954524787282006,0.7815126717237479,22.146136820284962,0,0,255
-1.2928557082538847,1.079844394557277,22.60498614457483,0,0,255
-3.725131186936404,3.33111278015046,3.420332610636275,255,0,0
-4.840805188659922,3.9190575036356465,1.6212066675770525,255,0,0
0.2505899506874506,-2.185454162836723,16.000339254671598,0,255,0
-5.640446060994468,6.00000934420762,3.4364817014826565,255,0,0
0.14231567709328818,-0.252424315775186,6.887679600431296,0,255,0
5.760539540445011,4.915415780659388,2.8182849042387303,255,0,0
0.17451913214272516,8.988836032520489,2.7441428014779867,255,0,0
1.2156246450717902,3.4120982407905447,17.980108521097677,0,0,255
0.2128047780695246,0.9806925405112779,20.268177941054134,0,0,255
0.07538778465834166,0.8198289394632582,8.27660719981482,0,255,0
1.0323305954732627,2.5830733089987232,14.230379466878173,0,255,0
-0.32494930675798417,0.9112335988923241,13.480079113866118,0,255,0
1.861222015403858,0.9181278022627957,22.4897902509277,0,0,255
-5.557047475857344,1.0312707040213462,3.1011759891005806,255,0,0
-4.523618894306427,3.3398788835651816,3.634853834746426,255,0,0
2.1620562979883955,2.049781481473456,21.319769466275204,0,0,255
-3.7431577329679726,4.5829472296589815,3.589485449073032,255,0,0
0.12277579273035513,0.4153270237220586,1.8301362263328427,255,0,0
2.998642885872021,1.3611573385425881,13.810337300516325,255,0,0
1.677739577439633,1.236958851041868,8.577901856278707,255,0,0
4.219955203347501,-5.8493952048124545,3.908839173556479,255,0,0
7.189726051739471,-2.4142796199533594,3.0316805434020133,255,0,0
7.371231972874923,0.2282738163402321,3.763538864735342,255,0,0
6.767048553162063,-1.459354961358634,2.894655571546572,255,0,0
0.34611865574064576,1.6503482017342979,20.786055030760412,0,0,255
7.59897383001625,0.49608354607124194,3.6786565987821445,255,0,0
7.325802877993415,1.1756574270518787,3.653357913921522,255,0,0
5.750775739874346,3.4576683954302654,3.037184082578494,255,0,0
-1.5748320320019344,1.0381574400249187,17.840403801903758,0,0,255
-1.229724449200547,0.40639550636368127,18.071452075078607,0,0,255
-0.15048530926045509,1.2156270217250462,18.16290242454292,0,255,0
-0.24200926602115327,0.9706620576638091,19.973819195413768,0,0,255
2.6920025974814807,4.533598587696108,2.019128794848288,255,0,0
0.4989900831347618,-3.4528967771371795,16.786635131836135,0,0,255
1.498059286841444,3.4837356155537087,18.50288840637748,0,0,255
0.4538703819819585,0.9755249863894442,20.841069658140086,0,0,255
0.9339506481057305,-0.03850317957968421,17.80424539250011,0,0,255
-0.13850713400403217,0.7439525022055382,7.458457758430592,0,255,0
-5.462828795299758,-6.269896074817687,3.997389387330707,255,0,0
0.4554382009831513,1.7671791448054914,17.163162283005693,0,0,255
-0.15578810104037927,0.4830167124191747,17.443596929245732,0,0,255
-2.0438733997737693,-9.546347966962138,3.183202945592847,255,0,0
0.2773341688804531,1.1249773826137957,19.59909254180271,0,0,255
-7.533456971172496,-1.656964202082378,2.8467566265423687,255,0,0
0.30188424021309124,-1.5632100378899465,17.275991238077136,0,0,255
0.4736412823122197,-3.0057709265827004,17.872478072339685,0,0,255
-3.2922337907544397,0.2367228189133794,10.86831994362233,255,0,0
-2.4282272787149477,-2.7280536927187367,3.3768967370421494,255,0,0
0.11963727844454422,1.9967519494507315,2.242037472521538,255,0,0
-2.201439046315129,-0.0814775813639645,17.458059917316515,0,0,255
0.6981809381461606,1.572537618217484,18.978186701633284,0,0,255
-0.0366349884998015,-0.6780351225508909,9.814652164509988,0,255,0
4.62655950049334,0.06736987647056555,3.5022036254439435,255,0,0
0.5183052470978103,2.6504610510569546,22.107500694785664,0,0,255
0.0459549632852268,0.9260750255929338,19.862434633193754,0,255,0
-0.5583861988070273,-2.063986284683742,2.271098400894852,255,0,0
0.11287372282625363,1.4103980503651727,19.614820725625194,0,0,255
-1.7696615159850455,1.5286278849917592,16.788856805740554,0,0,255
-0.25063317990150297,0.45192047704965277,7.312054672772574,0,255,0
2.0576718953564197,1.1598008714739874,22.112809474225855,0,0,255
4.4142065696870585,0.016433736678915054,3.4690150848495542,255,0,0
8.491216815053468,-2.3711177187096215,2.7154902022518357,255,0,0
0.20239529304679,0.9644405769794214,13.021319726000486,0,255,0
0.018745747776230205,1.4743510765192158,11.711919611052558,255,0,0
-0.03391332525136187,-0.5393451667346101,22.167616223744098,0,0,255
-0.04825901905139906,-0.050657439066909005,6.206700603418563,0,255,0
0.21975589913148613,0.48480655756471913,1.5778633008615106,255,0,0
0.18485559537675106,-1.6496276679483362,12.166336327870267,0,255,0
0.06876462973000914,0.795777321263668,20.78119879186201,0,0,255
-0.4789978840851555,4.1307756911694415,20.555237156452343,0,0,255
-0.09213601650935181,-2.717625759360124,17.987116504639143,0,0,255
3.3113313718590436,3.0973217009569547,2.5703369765214634,255,0,0
-0.9633073078661112,0.5375555846183833,14.482849196596652,0,255,0
0.6400641700198351,-0.08202966898821157,21.894070207700675,0,0,255
3.6671850148526524,3.500013779755622,2.670678129015762,255,0,0
0.09208011685303968,-2.274456256157343,16.855870628810194,0,0,255
-0.7387574477984495,-1.5445256045668916,11.242010641829209,255,0,0
2.064175129803383,3.7641889623448668,17.305894227601904,0,0,255
1.6539448650353687,2.5736480553344463,8.17701455951375,255,0,0
1.2519070847256628,2.390342996244763,14.161680802956012,0,255,0
1.897240794078458,-3.868442772600611,2.4588256580814196,255,0,0
0.7018535838177966,-2.1739912109625057,14.202496595675665,255,0,0
-3.9120972025412604,5.1849328036625595,3.7082792213409133,255,0,0
-0.7768563009494878,-0.12535619108206866,19.323382866670066,0,0,255
0.3332382015742678,-2.7303482112604214,16.77027433666289,0,0,255
0.012876029270595125,-0.38475575892451697,5.502849869674721,255,0,0
-1.1205676055194937,0.5727178182322256,14.943295457506265,0,255,0
0.33208210650974435,0.92827026613303,14.819516371835373,0,255,0
-6.534564075399997,4.891403997997982,3.6036700153695236,255,0,0
1.0595284959564293,0.7968563451635478,8.63066136809201,255,0,0
0.40035822074766664,-1.6035683591591594,13.88130045984994,0,255,0
3.257266169332466,-3.49491566195549,3.395354010402891,255,0,0
-1.6397764979483185,1.0014758956919083,1.3559767058455026,255,0,0
-0.16957079108282397,7.216003494510815,3.1041716827848824,255,0,0
1.625087129843442,-0.10796654020063749,22.186515082137557,0,0,255
0.26684072154678484,2.679480219773608,22.184670893300286,0,0,255
-0.1710185115628122,0.9795995832525306,12.665713999383307,0,255,0
-7.352200067809415,-3.603818060848306,2.8777700697260484,255,0,0
-1.8809252219175772,2.4500389542538255,22.205985945728706,0,0,255
0.29800727196428134,0.836137271229234,21.441341776840673,0,0,255
0.1928022668098007,2.6856488321339014,21.52878170678303,0,0,255
0.4313540283277788,1.3400701673156883,20.278930216494754,0,0,255
1.7818251832121623,3.100349367282786,18.20565265759002,0,0,255
-0.14733344817150107,0.8038201541655079,20.566764353332964,0,0,255
1.1080102734761081,9.505227082656232,2.660676473694444,255,0,0
0.39393723380413015,-0.808258910896514,9.30649494068686,0,255,0
0.3824124859284749,1.3382985095848081,20.221483373269876,0,0,255
1.6444701242206197,-0.4442733448145708,22.46012142929243,0,0,255
0.09708234263099723,3.5398520405186673,22.336427858584074,0,0,255
0.10034497335801423,0.7605086846703808,16.287983033864236,0,255,0
0.3327694970894227,0.7171240384731855,19.606532021904624,0,0,255
-5.888434615832667,-1.2474756550334738,2.7807911854458593,255,0,0
0.6100148146721552,-1.4088968146643377,1.4995901595701162,255,0,0
1.5619213748140204,3.9142265685456996,1.7085317210889295,255,0,0
0.2025726477635568,-2.9551251735735398,17.199244236873344,0,0,255
-0.2125724860614591,0.2339932500606657,5.639255874413022,0,255,0
0.3843065419703351,-2.8586558598678127,17.757991105931914,0,0,255
2.9977757725656415,-4.9229392470026525,2.8386486688566155,255,0,0
0.6468398745746098,0.32609771193197107,17.430862409521602,0,0,255
0.06921315049387382,0.9054137015033024,20.247341642288198,0,0,255
4.550974003184846,3.173674211790305,2.7974977194052886,255,0,0
-0.09820141627411402,-0.7722982264898675,1.863360446719026,255,0,0
-0.19990719281169497,1.1486651158026215,17.076828149172787,0,255,0
0.5822576974407812,1.270471012474565,18.5819496752952,0,0,255
-3.863426696371885,-2.318843849672167,3.573733266574068,255,0,0
0.2991537586173505,-2.4919630579102034,17.755253227241464,0,0,255
1.1249661789519005,0.9390742522085131,22.23805135181405,0,0,255
-0.4270703439122519,0.039916441034673546,18.47986518409627,0,0,255
-0.05154988752322675,0.32226170960815315,8.144863374508198,0,255,0
1.9690404346812593,0.6681587561225782,22.201065689445866,0,0,255
0.06563087530998864,1.2754429581990694,19.26263632643541,0,255,0
-0.14380414771262867,0.710477823719187,14.977960184640068,0,255,0
0.6726092844892149,2.73678373984772,22.061406112002643,0,0,255
8.732980962943595,-1.3411248238449365,2.70092708722841,255,0,0
3.9940332918912134,1.109685692574873,3.304864101934726,255,0,0
-1.5235437475859086,0.34411482487554357,11.558704875446361,255,0,0
-1.2103993885254152,0.5693802788479589,18.228227598728644,0,0,255
4.433608233869436,-0.8904712634158357,2.5466889238345116,255,0,0
-0.630857135614556,3.9900270160822475,19.740912121687717,0,0,255
1.6944824327185677,4.10411959071673,16.84426527865527,0,0,255
5.9875757811508965,0.1209597808328623,3.748609890579984,255,0,0
1.1281183072928642,0.325193532955827,17.799586991073312,0,0,255
-1.751821628470038,0.9269071989206059,17.749988500544596,0,0,255
1.2064373150684957,5.5586478281353076,3.1656496365049307,255,0,0
-7.396491738483797,-1.838094433551778,2.8090299937811114,255,0,0
-1.4348603297997709,1.0842386257276355,17.803063574895667,0,0,255
-5.221229460780199,1.825951486117588,3.0619520886244893,255,0,0
0.29897382338383105,0.7870908298492003,14.759677043908901,0,255,0
-6.4978082423438615,1.4695995529837256,3.179386707884916,255,0,0
-1.0690159927915164,1.536207073296291,20.137033142503746,0,0,255
-1.1374464297631186,-6.524779443234329,3.5756380532908434,255,0,0
-4.928219325737236,-1.3605749727644396,2.5987377026685587,255,0,0
-7.43867286741053,1.1758842457262955,3.229750102809453,255,0,0
0.39934058096843544,0.246339340109333,20.292766161184076,0,0,255
-0.8887941289767853,-0.8730271329440727,20.013070039587177,0,0,255
0.221974321188054,-2.234257041101506,16.089730208316773,0,255,0
1.318074484492682,3.1735577236119923,17.686701356240615,0,0,255
-0.3160307065168384,0.3961829950974186,17.626499097729187,0,0,255
-0.11162541257846467,1.854899116050877,17.345331455755467,0,0,255
0.3543134351876819,-0.8710294100207179,1.5072573656884012,255,0,0
-0.9758932661668192,0.09284118887508526,22.699498073850187,0,0,255
0.15610210163130095,-0.105645974293604,8.212236710785566,0,255,0
7.920185010304113,-1.3253893220595825,2.8188810629266485,255,0,0
0.018964737456340766,8.153184271392336,2.9637301371197724,255,0,0
0.5319214283100363,1.177000389834351,10.190318548962761,0,255,0
-0.41354665619674275,3.873558702379446,19.938572386909424,0,0,255
1.5534922667875906,5.941066672030841,1.90359941565043,255,0,0
1.5450771937733436,3.393431825857131,16.671063321738426,0,0,255
1.1033282472172143,1.3172482845858804,17.112588752961607,0,0,255
0.3214037257532404,-0.003905050632612643,1.8450423892126326,255,0,0
-2.7060311498909697,4.2252580971437945,2.338025780634371,255,0,0
8.21668772974935,-2.907024876143641,2.942803029215307,255,0,0
2.3319136592610743,-7.2008653550718655,2.7186996089050766,255,0,0
-2.412659482506883,5.730123236809072,2.4092135042636755,255,0,0
-2.010497821267983,0.5680551121748261,19.324481756535263,0,255,0
2.4176505022160457,2.1007137225259016,21.719422399931787,0,0,255
0.08031647151991828,-0.9838013366810746,9.61605638043298,0,255,0
4.641412818143625,-5.137287182241391,3.742279014545022,255,0,0
0.471619250099659,0.4415983169879554,17.032641306341517,0,0,255
-4.016359859928686,8.327199275439874,1.980391319344654,255,0,0
-2.0518152251250097,-2.2762420252993247,1.5690475248694884,255,0,0
-0.3812031340887027,8.309340952199364,3.0080172908680156,255,0,0
0.18732108361447625,9.175005133935175,2.683445625818876,255,0,0
4.841353058566285,4.251542438544171,2.8307414837728215,255,0,0
-1.6583321361218033,2.660798577022357,21.305010550205175,0,0,255
0.9671475788147039,0.9578443660176228,18.158763870824664,0,0,255
1.8340352083870406,-6.835306661076769,2.886585362146148,255,0,0
-2.328190163617434,-6.142020919928754,3.6014031778707882,255,0,0
0.18576541627025656,10.116374811007997,2.3508023523579706,255,0,0
-2.0379580628827534,1.9064802076516256,21.866778240260455,0,0,255
0.1697481409514544,-3.0197948297389035,17.133550840411154,0,0,255
3.005809297626725,6.409758219872231,1.852783735264024,255,0,0
0.893883050892468,-2.8944771678400256,18.280054961512,0,0,255
-9.04118267494588,2.3374367965387775,2.8418554918515144,255,0,0
-0.4324884974968921,-0.11525607167181713,2.2263242385289805,255,0,0
0.7902860381455976,1.0398641529517805,21.01143325842852,0,0,255
7.493067800848438,0.36646098641340474,3.717504476096086,255,0,0
-1.1421913719264034,1.0532807337337533,21.669949652300105,0,0,255
0.7218821737586447,-2.0524788817430806,1.834367053612111,255,0,0
-1.9790241663319337,0.5022427963758211,19.71428536193435,0,255,0
0.07733406015650218,0.6497896256129468,5.206426109258972,0,255,0
-2.5166210453574998,-2.6252873137599337,1.6580001789776497,255,0,0
0.024281554185684912,0.6094222592875608,20.501004798173575,0,0,255
-0.2232732247588902,1.2928892893503539,18.322806334475693,0,0,255
-2.4585314385151635,0.46370854261065253,11.363379669644463,255,0,0
-5.198754407860253,-5.865011163246711,4.018576957581549,255,0,0
-5.414732272702606,5.893508424684395,3.493602007239132,255,0,0
-1.7224504855782818,-4.446008909128187,3.21760034039057,255,0,0
1.9308116684294392,0.7886035060468084,22.097070969033577,0,0,255
-9.273753853854565,1.7729842435287309,2.7901152598336685,255,0,0
-4.403819041216284,-1.1224842989290147,2.4796969569404665,255,0,0
2.180585146758303,-2.95597026353614,13.606429420258593,255,0,0
-1.8333180333867687,1.0757031520398799,18.693646482000524,0,0,255
0.09234000304786635,1.9235818922437324,20.954794009801486,0,0,255
0.9153753760544083,1.8931372239140303,12.41105296068018,0,255,0
-4.055198296582317,3.260134905973692,1.6592317647355752,255,0,0
-2.0263295061156184,0.6703127213614964,19.09679307861027,0,255,0
1.2102424130701261,2.8594602761095205,16.92366327957383,0,0,255
1.1144453963089416,0.5649607294552421,17.963929981126054,0,0,255
6.748130450274026,1.66831974565714,3.747896169247413,255,0,0
5.5843114806391485,3.1739105173709277,3.0731679149908935,255,0,0
0.30518423953399354,0.15643163862285953,6.582988926419804,0,255,0
0.21449218972798542,0.6753504500127571,19.60972193154011,0,0,255
0.18157422244943267,0.8518104286688382,1.0929378499052875,255,0,0
-4.074882264811192,7.899259182063046,2.081092294453102,255,0,0
7.520348005895372,0.0027598123750394382,3.8264220295246343,255,0,0
0.5269718081630637,7.289682245956774,3.0678523345695545,255,0,0
-0.48914921389125776,1.7712559955813945,21.188463222298484,0,0,255
-5.773269053403132,4.648129859863243,3.6218872589198305,255,0,0
-0.5355260749137907,0.22219833689209456,18.235441082075475,0,0,255
-1.380137971848279,-1.4694448128036055,11.30317389520253,255,0,0
1.3138780388832858,2.1436337990819414,14.031757122704683,255,0,0
-7.481903609243634,2.136716310738088,3.152809171967993,255,0,0
1.2765215417399336,3.0308720190512544,15.919908324718188,0,255,0
-1.4802016204345323,0.34158722614174897,21.930092940786412,0,0,255
1.2551820451178775,2.9305604956576303,17.621379683739388,0,0,255
-2.2831873308976367,2.35005825444398,3.00093043911869,255,0,0
1.7339784216642442,2.909984582229733,17.228538698725593,0,0,255
2.06406075609387,0.31441439231039425,2.669547822724503,255,0,0
0.5715947421943719,2.086474454577427,13.037621788261989,0,255,0
0.27716525508652834,0.6927269683173788,9.735975673413908,0,255,0
1.8787039079296983,1.523908984351993,8.521019933435012,255,0,0
1.4337974350960174,2.191206827937358,14.140944691396685,255,0,0
-0.5854551652023422,1.2692081604061203,20.940294580761282,0,0,255
5.173777426418133,4.605819102780881,2.850687899507186,255,0,0
-3.9212111612934906,1.2460885090571578,2.757048687691161,255,0,0
6.606422215179264,-2.2717605089464312,3.0656375716781543,255,0,0
-1.8686804789576132,1.3762930351687324,16.742361804406997,0,0,255
-5.8377452565223695,1.738808312196002,3.1242229837562236,255,0,0
-2.0968305186727796,2.8047051917554318,21.69345926451081,0,0,255
-1.800562429219993,-6.374646341671054,3.5347830906586832,255,0,0
-0.08124043645120581,-0.6712469827986081,9.345869107005749,0,255,0
-3.1412117188805535,-1.0102126251534997,2.157341353014491,255,0,0
5.618558601483796,1.6691760018041646,3.6957203505353284,255,0,0
-1.7550450628078322,-6.7695836850136235,3.5533403336742144,255,0,0
1.2315054779091172,-0.5250175175690798,0.6484312639925021,255,0,0
1.1944332210597817,-3.7492167855042937,2.3866260241588853,255,0,0
-1.3777215300495698,1.056052460451276,18.03535026801335,0,0,255
9.550945081291182,-2.5476021029855014,2.3726637153065973,255,0,0
-0.6502534117257255,4.2291959860509705,19.598856415924327,0,0,255
0.13648754744100006,1.1185576317325356,2.15884410801831,255,0,0
1.5995581144976496,1.9640186020648904,20.53967498990741,0,0,255
-0.13764247424298454,1.8764349154252762,0.6447477417903064,255,0,0
4.77263577634609,-5.207364836609283,3.739578133342522,255,0,0
-0.004383173799360651,1.0009117903238316,9.190744470437831,0,255,0
-0.25095550162888347,1.449863069128181,16.460420073629315,0,0,255
-0.2227472033795348,0.35098087932597055,1.2424224726231374,0,255,0
-3.281392836047602,7.3533535029386465,2.3093542809145964,255,0,0
3.6334191845845236,6.492276752531474,1.9724898814803722,255,0,0
-2.8724289462079104,-0.2605601876951191,11.183222677935447,255,0,0
-6.584910436042044,-5.7788818336091765,3.6511048063897427,255,0,0
1.483906002611545,2.1584525063902653,14.194213287811461,255,0,0
6.693118624143832,3.9432587842503977,3.0593965720936254,255,0,0
-0.6269822139494868,5.270896180372176,3.0831770550852102,255,0,0
2.287048453504849,-6.413551340329446,2.764148173042699,255,0,0
2.3413302520727792,7.885990409531393,1.5801097123559866,255,0,0
-0.5893924897593283,-1.2854093534596136,20.948369368849804,0,0,255
0.5227231069030138,2.7441359010004653,21.357220413373092,0,0,255
-2.1119923695494314,2.7989739763827792,21.681705049161316,0,0,255
-4.281174875787084,0.34356695865659664,2.974559490152692,255,0,0
-3.2566537782383405,-3.6412159748980213,3.7199768109536064,255,0,0
-1.4951884051629412,0.4292723392681277,18.637891185793517,0,0,255
-4.7655029917922,-2.575907347522018,2.8847383957380783,255,0,0
-6.8920092160164526,-2.8987317059467888,2.8329154472367155,255,0,0
-2.0486605169611467,1.0425136357933498,17.420886701986493,0,0,255
-1.2973475748391459,2.4854467398262345,22.062947526115227,0,0,255
-1.4003794425751155,-1.4258928076806645,20.955171521536656,0,0,255
0.096967137207702,0.688530311965136,19.065409701215803,0,0,255
1.778376471761625,3.7361594588936073,18.285885760510112,0,0,255
-0.04005397227495732,-0.3791775937880105,1.7348652024562776,255,0,0
0.6411899983413808,0.8908390460345537,16.68275438358938,0,255,0
-0.0423439867813932,1.5395540578178055,2.291668464646323,255,0,0
1.1270449144269576,3.5208380945207463,1.6362435552938983,255,0,0
0.2605269321136413,0.7023591259333362,20.43748039813021,0,0,255
0.3334993312657587,2.074508264738439,20.689751618189224,0,0,255
0.5734880752083832,-1.6903308237980177,13.189157461080764,0,255,0
1.6747289623849522,3.148517494786477,17.252430267698138,0,255,0
0.07926628717069573,1.2972999402641863,20.7921735929994,0,0,255
1.415567914856291,3.4356312140572864,1.642046927998038,255,0,0
3.8986502984895477,0.4594248165285757,3.225797649676524,255,0,0
-1.0722517310311035,1.2108988223430535,17.748550609366454,0,0,255
0.5103466918962966,-0.24619581104070332,0.5126179772064301,255,0,0
0.28530758044504256,0.07673345521499128,6.371520077447165,0,255,0
-1.5784827462983735,1.1583920004836963,18.633591321646012,0,0,255
-1.4342920774841377,0.48657142571889556,18.311958469445624,0,0,255
3.6374799086729954,9.119123687052637,0.874411035321232,255,0,0
-0.11405896136550747,0.5435874229977482,0.41269060293636717,255,0,0
-0.15526945253295288,1.5637160199137954,20.639984649571076,0,0,255
0.4174287556681866,8.447309072993358,2.8804477234417734,255,0,0
1.3403874540089364,3.619451327837796,18.635366385907112,0,0,255
-4.591585732783224,4.228199741615134,3.576684661723521,255,0,0
6.85302172613524,0.050975492423815015,3.8333767911755965,255,0,0
0.37136403867131074,1.7276911240885107,11.923168446972607,0,255,0
-0.6436483807574658,4.452690925323683,19.739395254543552,0,0,255
-0.6332849583776342,0.8333584212076358,14.766738734017178,0,255,0
-0.660892828220375,0.8850839936416776,20.508209430065914,0,0,255
0.15639704333828144,1.2275210172309425,2.1579079501050744,255,0,0
0.5860519551171318,2.0483424791544023,12.638370718376871,0,255,0
0.8724590396981492,3.162743888708472,17.781227674724,0,0,255
3.123952383631363,2.7815048787679597,2.494382263168583,255,0,0
-5.652500606785754,-5.798543905128549,3.8720254674038435,255,0,0
-1.0115885807406637,1.7699309887305765,1.8422419374482515,255,0,0
-1.2047921428586204,0.8014165519650174,21.830293471606595,0,0,255
-1.8118598287769694,1.9616626126128576,20.729631991088784,0,0,255
-4.970103524525038,-2.329161852692503,2.7924082711652702,255,0,0
-0.45081458371933547,0.6514691562745962,12.457911183475117,0,255,0
-3.4759004470315986,-1.7953646607114089,2.4891449363778544,255,0,0
2.9122468270821096,8.217506429436789,1.345889493997742,255,0,0
5.184142262901976,4.5859626068697015,2.849727694735882,255,0,0
-0.17489803322240002,1.5409398843088233,21.153560922381264,0,0,255
1.1040398675342313,-0.2942730455552797,21.604479015370984,0,0,255
1.9976877066728869,2.0501633402532047,20.491646676362947,0,0,255
-1.3003609959498785,-1.0233383598223962,20.78454736050778,0,0,255
1.4136793041119462,0.6265175122575021,22.00535341910749,0,0,255
0.25234733361222283,2.3360366103312944,20.937921984428936,0,0,255
-3.638028275498123,-3.4488492445271612,3.66361850699385,255,0,0
-5.479837906462287,1.6280176863760727,3.071618003797531,255,0,0
-0.08341588906467255,-0.08347886190422854,1.6659549822203121,0,255,0
1.6241428131813755,2.9445281397918937,18.231137700955994,0,0,255
9.402629431197521,0.9328084681407306,3.1984529962518935,255,0,0
0.5167306797383295,-1.4549363170340772,12.875758856388142,0,255,0
1.1989772518049064,5.575382093920977,3.164328573254406,255,0,0
-2.465838640323855,-3.9186574213827323,1.5896000751950363,255,0,0
-1.4200739686552333,0.46538881222151063,17.734046444501068,0,0,255
1.4867831094863446,2.711277636257379,15.772571430202326,0,255,0
5.642119080238661,0.6771353002485112,3.602541351939312,255,0,0
1.0886173186890695,0.59953190996875,18.602232521035795,0,0,255
-3.7104896927145674,6.903535216495628,2.327062723480611,255,0,0
-1.6318937014146488,0.9798440998153914,16.653733643841175,0,0,255
6.568375079975733,-6.2702684404879125,3.525765378533192,255,0,0
-0.07085495002603505,1.365755351511299,16.057074562331323,0,0,255
-2.1894177341857746,0.8017591297546101,18.879661022949662,0,0,255
1.8135529052542476,3.594059604897696,18.464340751591614,0,0,255
0.5348656804572005,-1.6191550437496494,13.584823643662432,0,255,0
1.5704942530091346,2.8405047823406706,16.38176067641973,0,255,0
-0.15846383767054084,0.9247663494475086,18.29982873265426,0,255,0
3.000412317740292,-3.9272590333639816,3.5161740492006235,255,0,0
0.26007434270864477,0.49662096276095014,1.645947945199956,255,0,0
2.547233871768159,-3.0392343860860755,13.46933104951081,255,0,0
-5.958810350572937,3.766344283125035,1.3776187385600211,255,0,0
-0.5181399156256254,3.838675215750821,20.188026578988914,0,0,255
-4.86494998295485,-3.764599649682447,3.846966425133194,255,0,0
-1.9013160978262167,0.6443979850195087,17.649675991872982,0,0,255
0.6868631629954512,0.6234671053886555,16.63720695731286,0,255,0
0.5173003773731826,0.8257878064433266,18.931874074211375,0,0,255
5.737698748617559,1.5775542693622449,3.6871583045376486,255,0,0
1.2090863140067671,0.9197841294757888,22.45369847195923,0,0,255
6.206964604780735,1.630575320897328,3.7340438963069307,255,0,0
0.15076977861296,0.9604526209452009,18.888988258299765,0,255,0
1.3691695160918822,3.3657719434451816,18.178332803422013,0,255,0
-1.5336558231189832,2.0144791233792567,21.30868590481962,0,0,255
0.6070724535431222,1.079641412602358,17.061150074104795,0,0,255
-1.4202402993358765,1.1274819099016922,16.229663885140017,0,0,255
-4.229178897743675,-2.9557611032397935,3.687612681019586,255,0,0
-2.8707285222211,-3.051716965496094,1.6556959350443632,255,0,0
0.4420118369185164,1.571702264547843,10.8902565559464,0,255,0
5.807835349827879,4.0484428371942185,2.9140865455669247,255,0,0
-1.7819058535909105,1.0152000251014834,17.394599242250788,0,0,255
0.9295584428612012,-0.010221818088737728,22.24205851713009,0,0,255
-1.8758900252581534,1.1677047006269858,16.757800987922263,0,0,255
-0.08835214372518052,1.06715716356155,20.85203334869903,0,0,255
-1.506518143112206,3.7395310649354814,2.1441410592153254,255,0,0
-3.178694283136512,7.1014151158629195,2.3505214559116014,255,0,0
-4.52092613380247,-4.012728652756043,3.8366847522196457,255,0,0
0.8308141459416281,2.332626457140701,13.375732257221788,0,255,0
0.592332158950745,0.20808473399273728,18.688088273088095,0,0,255
1.4205704552153993,-0.8733100942998991,0.5724376727944089,255,0,0
-4.645343853901602,-3.1296420139651633,3.7971219624561603,255,0,0
-0.3914098532963314,1.138371353040172,20.573233175450802,0,0,255
-0.11323883631262212,0.7926078956026679,8.060705100715525,0,255,0
-5.61583026449038,6.368042042276076,3.4494929370170144,255,0,0
0.33722179681782044,-2.7044930907049602,18.388492668593162,0,0,255
-0.3512284411269953,-0.8166671571424482,1.9119750451519588,255,0,0
1.7696230877173251,3.290950203531223,17.741784163501922,0,0,255
-0.7530902108333105,-0.8481967509482082,20.00128870625313,0,0,255
-5.506570343907236,2.7474848873695614,1.7259461786972274,255,0,0
-0.33717144034317775,0.09267210458791053,0.2785881735556862,255,0,0
-2.339480841291832,0.19513281474425048,17.31774046285704,0,0,255
-0.5952998407905068,1.457826766327983,21.451389771985,0,0,255
1.4611416176712209,3.7100652447689093,18.335678077089803,0,0,255
-1.7846214158716873,0.2663352644166611,16.90578166784379,0,0,255
1.2518752053109143,2.4973556478705676,17.21871276103819,0,0,255
0.36319862426434324,-3.3343010730680827,17.219674451805783,0,0,255
-1.2963869116782551,1.0462600739947432,17.647247275019062,0,0,255
0.035969522400312565,1.141367145730145,10.146655214182667,0,255,0
5.187175094508654,0.9693345031990116,3.5235747839617573,255,0,0
0.38584790715010353,2.8333351816738896,21.567180490938405,0,0,255
-0.32140505951577014,3.3316534667921127,19.363320198160494,0,0,255
3.505255654712445,1.708672185126009,1.4350325141012363,255,0,0
-1.0195454964534398,3.8386960587155015,20.400623261772274,0,0,255
-0.20645576974956287,0.3377125289604587,0.7510610182309361,0,255,0
1.3235632812283074,2.5152363030142713,17.516803527504727,0,0,255
2.1669188121443224,3.615233937541316,17.217237408122124,0,0,255
-0.866766673098756,1.255701282096109,21.372937415762138,0,0,255
6.430929683763785,-6.662181233374435,3.4267720289281516,255,0,0
-0.00694800509662258,0.752453875253539,16.976366610616953,0,0,255
2.3201115811467115,1.699720591968032,21.19598065916882,0,0,255
0.4269434016487198,1.5216247226886286,1.3878696239891377,255,0,0
0.2348574294287988,0.07711582368848371,17.22092602914927,0,0,255
1.4087859115663715,0.5320539861765397,17.526674843326095,0,0,255
-1.3651823819641027,0.32992124989725446,18.489038450663955,0,0,255
3.4472324535996517,1.2088707853766016,1.4308182418847846,255,0,0
-0.6257226477692444,0.36538976334506057,22.12117987402982,0,0,255
6.010450341130979,-7.213961036410556,3.45638818464567,255,0,0
0.569743775135332,1.7353101040944756,12.833218478458264,0,255,0
-5.499773744872664,-3.217591032464978,3.1329210832371728,255,0,0
-0.19110833685445752,1.1885495685585767,20.664316087405545,0,0,255
-3.6216916871099807,-0.9732334352127919,2.2830714521065225,255,0,0
0.20722529228090336,0.04108981117285388,0.640979993544396,255,0,0
6.533268554332621,-0.7966247799951351,2.889837682853416,255,0,0
1.0154439764669785,0.5996678954746033,17.47919661865514,0,0,255
9.315222526606599,1.2667293410742466,3.229661923329398,255,0,0
-0.5244415570982421,0.2477105242502157,21.77817619383634,0,0,255
-0.39378673330597835,0.5633274899878409,11.672606160194633,255,0,0
1.715098467290973,5.1448605613315275,1.8315328827855297,255,0,0
2.725289963566263,2.8780650020805467,21.098481296903174,0,0,255
-1.3407109956771484,0.3236020945394443,11.604088275565633,255,0,0
-0.44612680530356214,3.0064186635778025,0.47920302077633803,255,0,0
-0.016095803441602816,-0.9832973206735907,10.054189656549624,0,255,0
-7.507705428813779,0.6394282974039103,3.391598515995918,255,0,0
-2.8857478481639403,-1.763585584139781,10.692749605807695,255,0,0
-0.18782936618475896,0.1121236632210291,21.663790841998512,0,0,255
-0.004923455197361709,0.7817372614281259,7.221447804674933,0,255,0
1.5081914880706573,2.1468658571722834,20.961115547188193,0,0,255
6.640505391737956,-2.5983645202365295,3.1850059138095643,255,0,0
1.37199658027489,3.251401827846852,18.086477416491775,0,0,255
-1.4319791874619479,0.5889064609789104,18.87869136269415,0,0,255
0.4299826421164217,-1.8458480314583365,14.90037182735442,0,255,0
-2.1669849821698994,-2.018180839048445,20.943819192185885,0,0,255
-0.054016340744320566,0.10923373976897567,5.367767389819208,255,0,0
0.6327724704918536,-2.7348761957988397,17.159625538010886,0,255,0
-0.8893540472771136,-0.5847456531737161,20.52221248127165,0,0,255
-0.2625740598165674,1.8717342051053445,21.03409367797266,0,0,255
-0.24074015296175927,0.5731132271192578,6.806303369854787,0,255,0
-0.9332037920002959,3.347464497064279,20.209891604931386,0,0,255
-1.0211744759131558,0.2954629940204025,1.8781290240747888,255,0,0
5.175040828864377,-5.663435074229001,3.712262699400278,255,0,0
0.5857110296351311,0.8925477858525686,16.22227350828137,0,255,0
0.74010629154361,0.9399167334264722,18.75520320832174,0,0,255
-6.045070957122243,3.6945857702344154,1.374711904929161,255,0,0
-6.372634361812645,-4.893374276118648,3.840100228004464,255,0,0
-0.8247099087981903,3.3834494911670623,19.202342681899633,0,0,255
-2.3123104517479796,0.7247150948928426,18.71437755565153,0,0,255
3.8485067467728857,0.4829090253334961,3.209525414196794,255,0,0
-0.36528821239064563,2.196100783868104,17.64226974790844,0,0,255
8.048231584466153,-1.3000976673644282,2.80724387953084,255,0,0
7.115519552758316,-0.5198848827940387,2.968001924269086,255,0,0
1.7034321709548013,3.2978721271250886,17.772823249781418,0,0,255
0.6843826572634986,9.18007181334641,2.683753019611774,255,0,0
-0.9215791265205473,0.9788983253711672,14.77475237568628,0,255,0
2.1078313110550537,2.1210723934154094,20.779607671046328,0,0,255
0.5057177025083879,-2.1553974491032672,17.324881692342853,0,0,255
0.6382348274325431,2.186104608793023,21.436898234622944,0,0,255
6.432814858446064,-1.5308349617777828,2.900334230896251,255,0,0
0.22321582917883898,0.3969465673023858,21.226682150255762,0,0,255
-0.3322748819279986,0.1198035449803463,21.86544829955414,0,0,255
0.25680564766886826,1.544967078327848,11.085174855390807,0,255,0
-4.503154504963563,3.5123404106248612,3.6066475231411124,255,0,0
-3.88373539409277,-2.489361717879192,3.576624936577558,255,0,0
1.0239849406955177,0.623153875634478,18.22446225345433,0,0,255
-1.4743392287864587,1.169215417547298,16.35123278082057,0,0,255
2.1846535600997603,-5.205129537813124,2.7205794088425934,255,0,0
0.24353247917221243,0.19626051277286144,3.130918617882398,0,255,0
-2.4792937392822285,-1.808721084533933,10.897114406119941,255,0,0
0.5108789971458663,1.579873995044058,16.888991790884422,0,0,255
1.9195739058109709,3.641263660140532,1.7959415246330588,255,0,0
0.2581055315141581,1.4572168941999462,20.945571308307606,0,0,255
0.37774365062947896,0.3784703804924265,17.356493534494643,0,0,255
-1.7832851729519605,0.6777433102889892,17.277744554602663,0,0,255
-2.1223892032990235,0.34056397694937723,18.633350412287676,0,0,255
0.6102101896512445,1.383305255170189,21.33161252866784,0,0,255
-0.6271922575052495,0.8930169652051126,2.349327244271626,255,0,0
-0.7445343940438461,-2.499468070473593,2.5393793815398067,255,0,0
-2.8512469474829634,-2.0209907972865113,3.2239777806451593,255,0,0
-0.7816558260508379,0.7665812545970645,13.560248748458307,0,255,0
1.5209215939467158,2.373257611768476,20.595265774502256,0,0,255
-0.07447078424658561,1.1706135942741391,2.128716965947007,255,0,0
1.9284377605494973,-2.7183417301045134,13.748034529844258,255,0,0
-2.1274345966467556,-3.5357932268114265,1.6848820554095068,255,0,0
-2.095214306578097,0.8954317920958519,17.200098962858036,0,0,255
-4.903037168168207,9.217484348123486,1.4915798458772627,255,0,0
-1.0829971994501253,0.7913037476486304,22.757153596270207,0,0,255
0.7665326174438384,1.7604310206289222,13.174266595270998,0,255,0
-0.29131788817665966,-1.273306130320694,2.204697740906507,255,0,0
0.0618754210530967,1.2049009875145922,20.9660716093531,0,0,255
0.7047610371948744,0.8295134866032596,18.272315591405402,0,0,255
4.9524737404272905,-3.6238072372551247,3.792799009386423,255,0,0
-0.24469542825331028,2.0452189988727856,22.68643150044333,0,0,255
4.709729392800705,3.2214726712520614,2.8309094159302863,255,0,0
-0.6466600922978798,3.7531047066863223,19.893330393546595,0,0,255
5.822593980956424,-0.1671062724830179,3.8188642235535206,255,0,0
2.979600165211129,2.994383659512407,21.211366914856796,0,0,255
-5.006698256822852,-4.630607876464344,3.9005411155453857,255,0,0
2.444825691841831,2.1226288202531682,21.838452227928567,0,0,255
-0.7169432638482918,1.9737648684895732,22.063159457794725,0,0,255
1.3919249309285244,3.785746031941856,16.414702917954124,0,0,255
-1.476475915869146,0.7586335829641062,18.15370042068877,0,0,255
3.3373792941534557,0.9199951950599797,13.677191852105508,255,0,0
-4.935881092764667,1.0180970348154372,2.975669072786425,255,0,0
3.712915770137053,2.7129651580958796,2.6137423568522378,255,0,0
-1.3839113865441437,-0.8132959806261846,20.652159620360152,0,0,255
-1.215419565919524,-2.3403244019725924,1.5778745016292433,255,0,0
-2.4637319719696205,0.8019396492233368,11.536568893374039,255,0,0
1.1414194376063667,-2.47126264184886,17.202129904180122,0,0,255
3.5510415514230695,6.832067858493952,1.8386618361431921,255,0,0
0.5006303303142045,-1.4887677183645707,13.17222120181259,0,255,0
0.600089972656554,2.940243671691526,22.79058488281285,0,0,255
0.4623841818812623,-3.1012468887924234,17.964163358927483,0,0,255
0.9495661591067026,0.9322737135106682,17.9922777380023,0,0,255
0.309872819279721,0.9447691863508084,16.100584381602662,0,0,255
1.1042784615759027,0.47097835713397584,18.334160261810595,0,0,255
0.35115448686933515,1.1619401409127548,20.64212596157033,0,0,255
0.027245646087153727,1.7947658526558632,22.037865375569808,0,0,255
-0.14966839745210547,0.5454354251487081,4.012177481272534,0,255,0
0.1250085717326646,0.9465394145714661,19.252638905980614,0,255,0
-2.032530168370253,0.6342207084356354,22.596484585127392,0,0,255
0.6866098224837298,8.751979809391743,2.8173317792780823,255,0,0
-0.846448315958292,1.2239747921431892,11.66590411135181,255,0,0
-0.39298165826698067,0.2957478076011947,17.900778793585374,0,0,255
-0.5927565101616006,-6.348121439841962,3.6611504663701466,255,0,0
1.1533434765386121,2.130893422938575,13.695555809913136,0,255,0
0.09532193651757982,-2.3161689890511363,17.999873576075792,0,0,255
2.6356400895814183,5.415988951855686,1.9263348597959828,255,0,0
-3.623472471824779,2.7167069044702585,3.4175784000334866,255,0,0
1.2227196495225054,-0.8351717968335692,21.449706257672027,0,0,255
6.597745582407354,-6.104055135944153,3.5761617997422253,255,0,0
0.23424125808882446,0.9408066963149566,20.514285586651837,0,0,255
-5.049508213787663,2.205423025630993,1.8842248811492244,255,0,0
-1.6010361772606787,1.6254333104720633,17.38307150420229,0,0,255
0.7655534116556109,4.709189395200713,2.936149829945008,255,0,0
-4.326465539632679,-5.341752036869373,4.155355314477603,255,0,0
3.648837644810463,7.602207168551502,1.5689263354990475,255,0,0
0.5515712333000872,-1.4647231103928615,12.662074965434853,0,255,0
-0.31351604498482805,1.2918020377258952,20.31518883023433,0,0,255
1.2190448006946797,-0.9997369152414037,21.860771335237462,0,0,255
0.45549701007100285,1.6458800092069974,12.370845706294627,0,255,0
-0.24687959466051113,0.9157726732598463,15.74141284881643,0,255,0
2.6018057886450565,5.378334929304354,1.9220025998402148,255,0,0
0.07758814084165781,0.8464290489434318,15.936403591898982,0,255,0
0.5765840383159176,-1.677295480582833,13.200206282585699,0,255,0
-1.8350264258539175,0.515070744152323,18.434328416167542,0,0,255
-3.5930355335073956,-4.424824075402526,3.989563879528348,255,0,0
-4.303820878259918,8.70181246317502,1.8014077341721093,255,0,0
-1.3356400864313374,1.0798642070271778,17.527581485417038,0,0,255
7.235969567937824,-1.0868412902292248,2.888765017500065,255,0,0
0.5708244866967669,-2.790666307719242,17.0619558367116,0,0,255
0.6424591274572626,0.4277986291612864,17.842010359227743,0,255,0
0.49326699222103365,-2.5960509609573488,16.051738632686508,0,255,0
1.043030818168887,1.7859623034100935,19.397924614481774,0,0,255
0.7556522451072596,-2.7097117824695642,17.938562920016917,0,0,255
-2.1410936791962385,2.478887578799929,21.314204456637146,0,0,255
-0.3458228392245926,1.5346374701567806,20.587843978678098,0,0,255
-1.1809831242452336,0.9431811805721827,16.176556007473955,0,255,0
-0.9339604690348325,-1.5745360666419375,21.271673355531426,0,0,255
1.0420609325623191,2.785326381981033,15.975957620839164,0,255,0
0.6552308756301013,-2.610783002737864,18.74729162755373,0,0,255
-5.206566077284401,-3.95290587631339,3.8886395270924834,255,0,0
-0.9749813516101559,3.3230041241190844,20.162628659677488,0,0,255
-0.2835571687679386,0.982551715083158,12.924762068125487,0,255,0
-1.5815998056938763,-0.9137320986193972,20.630490460960218,0,0,255
-4.325356561808209,8.354092660228131,1.905426057761809,255,0,0
-3.2490936679567666,-2.1659130482550517,3.3632616145993235,255,0,0
-1.470774717267972,1.1353088695228852,18.582480186911294,0,0,255
0.6968370503080819,-0.011211344754075153,20.75781608436444,0,0,255
-0.27108797644824645,-0.11506045983174647,0.3434455257547927,0,255,0
-4.7267946071943765,7.942569801524554,2.0273226506193938,255,0,0
-6.7514508973382235,1.6284423222156965,3.1822703599354405,255,0,0
7.195474248405512,-1.4702543524154421,2.8785116780442124,255,0,0
0.08693772040833356,0.7305009410350618,6.7511816554755875,0,255,0
-1.3719261409884325,-4.27723785544681,3.099204196112624,255,0,0
0.9927256958521573,-2.5560280675925213,17.751062593934336,0,0,255
0.040219615887741894,2.5368749205059666,2.3603645848007337,255,0,0
0.38687630964827213,1.0907693139849763,20.54481404424061,0,0,255
-0.17432381303325106,0.1006671301654792,5.9605831431045395,0,255,0
6.325577536183057,3.6293817851632872,3.111338259741424,255,0,0
-0.7746339039654937,-6.370954935962727,3.6198560922162613,255,0,0
1.9355571477326459,-5.8389858848737815,2.7999141861042833,255,0,0
-0.8647280139748048,4.898335200586451,19.84980934897944,0,0,255
3.926805579039606,0.7744348419591136,1.648953901971461,255,0,0
-8.121830965787534,2.7561412284754834,3.137956408771443,255,0,0
3.6727061466410102,3.9868835369517934,2.776050312832303,255,0,0
2.599609305413075,1.04722474372005,1.2771948727816596,255,0,0
2.147793680290824,-0.3629839961267939,2.1119734309812612,255,0,0
