0.004151263222474325,-0.060846554169284105,0.09539769209218896,255,0,0
-0.9049119051738757,-0.2918875993135678,13.095374708016589,0,0,255
-0.3424341312579235,-1.4864906181543305,0.35587181961296244,255,0,0
-1.724972232021723,2.1061284879468203,7.470420661197073,0,0,255
1.1850973810275858,-0.39344386749861876,7.895870791293149,0,0,255
-0.16000370657942303,-1.0514691594298562,0.18954849474554458,255,0,0
1.8850217892665277,-1.1246614882133612,0.26728082349889426,255,0,0
0.59380400440603,2.2729412043593618,0.27154105616983437,255,0,0
0.26523852546062054,0.3274246508316383,0.19690794235182293,255,0,0
-3.4105784510063115,-1.7109006614992337,11.944817795526436,0,0,255
1.440196776773612,0.6963907118102253,0.28500581611185155,255,0,0
0.5836695556884577,0.5233686228617522,12.700080259996806,0,0,255
-1.712072755745794,0.5100113393878147,0.2985418332733367,255,0,0
0.3754133638380456,-0.10349137776051925,3.689387901952451,0,255,0
2.1050097627639177,-0.8134382147649083,7.977078127221295,0,255,0
-0.9384248613214274,3.940610795862913,11.038819654981124,0,0,255
-3.4799570305643885,-1.3400340888892042,11.492256678088355,0,0,255
3.9339774902980693,-1.1490776445414588,11.907500950572054,0,0,255
0.17091693888251364,0.49220538647671597,13.190085930071291,0,0,255
-0.26680829788988736,2.860880703337793,9.341748901039338,0,0,255
-3.4898701411646265,-1.3309936904391684,11.53921272076309,0,0,255
-0.9731446834073318,0.555971846665638,8.788278125355962,0,0,255
-0.33889466239061417,1.3286095463701477,0.3604946337900395,255,0,0
-3.540761443099602,-1.3091182935314367,12.02570126403986,0,0,255
-1.4889496490851317,0.910960420358737,0.30741650950460087,255,0,0
-3.214421198161362,-0.4823302115324726,11.63319750800817,0,0,255
-3.672028732043324,-0.9099612150233625,12.23059810446454,0,0,255
3.9195310383242985,-1.0991128319237606,11.949310418097285,0,0,255
-0.6811411067905406,0.2702331847801351,13.01258192417769,0,0,255
-0.43064988269741483,1.1023875308946303,6.159267098322828,0,255,0
-1.66019688023462,0.5643119873851578,0.3077085919134074,255,0,0
-1.857824723040329,4.01440543250584,11.314348434064424,0,0,255
-0.44309867932444896,1.8924914482977457,0.38766164497352074,255,0,0
1.4738878857311086,0.08926815550123873,0.16409037355578443,255,0,0
-0.5616551102091624,-0.5720153513569175,2.6334977234810766,255,0,0
0.11621392933801031,0.862753557865794,0.09233929133892954,255,0,0
-0.992103843826988,1.1894181116459315,0.1413230420979,255,0,0
2.4681227461836333,1.2300168847147694,0.34118532704485266,255,0,0
1.4993894850789073,1.9606309114040323,0.0972278643266429,255,0,0
1.890963920269213,1.2350809269912677,0.1378145924082673,255,0,0
-1.8882876474886272,0.24083852779730874,0.2805179337541312,255,0,0
-0.3918309955019392,-0.5059422167869038,6.626033594221735,0,0,255
0.7938283856909307,-0.9017347328958982,12.622303963597384,0,0,255
-0.7174496600903391,1.8001334429344475,7.835431585148672,0,255,0
-1.283585360271871,-0.6135755824015748,9.530207840436999,0,0,255
-2.224316226104345,-0.7708601099830652,8.723450173163066,0,255,0
2.6609854528741144,-0.40651331279454883,6.4761894678564484,0,0,255
-0.5379782943552245,2.154111017396174,0.37945141222884293,255,0,0
-0.5303842718230553,-1.758110979928933,0.20243574474581838,255,0,0
-1.318799495382229,0.35194279629792014,0.26852146602022076,255,0,0
-0.3266722746161137,0.8708842351996084,5.787037144216922,0,255,0
0.1890452624240225,-2.213074737301966,0.2890831050456797,255,0,0
-2.4916577409095626,0.5660707573604491,0.12079929665200795,255,0,0
1.5094522672197532,0.6004295472057393,0.4533110185656364,255,0,0
3.547290496416813,-1.825712230268052,12.009368673935217,0,0,255
-0.4948286148252442,-0.6173393819838251,6.868348361077718,0,0,255
0.29838361516576417,0.866160918883349,10.125623811760825,0,0,255
-1.2884798672127415,-0.44797936241527436,3.3480160661612377,0,255,0
-0.21987617031477624,0.5745069757373276,13.127267174654689,0,0,255
0.43732256285486537,-1.292379026533375,0.32630382471382513,255,0,0
-1.6549580655629437,-0.5618400897816377,4.509424502224558,0,255,0
0.3706789739380746,-1.6817124096728642,0.3160375743442197,255,0,0
-1.8510347231930018,-0.051603852612951195,11.526880745118818,0,0,255
-0.0663985672478982,1.9773643743483102,0.41217547187752235,255,0,0
-0.26247936860719917,-1.558466278706457,0.3568685157206776,255,0,0
0.3997875004511719,-0.07319691881213,13.46193041415152,0,0,255
-0.5774855987313146,0.6164491268350982,11.342458127619029,0,0,255
1.6457080633735044,1.799138282395517,0.09437313168629674,255,0,0
1.009490525103023,0.09612614210242673,11.045633404799892,0,0,255
1.0290032080293932,-0.9116063634522733,0.3195276728123212,255,0,0
-2.425867245139516,0.1033606711778926,7.322499233543502,0,0,255
-0.236885437405014,-2.604187081598319,0.29358985801790044,255,0,0
3.0005288709710305,-0.33677513695265954,6.629431703219279,0,0,255
-1.4836229148544704,4.149882380318367,11.004759820274199,0,0,255
-1.4655685529694469,-0.19671717263733582,0.25785026203248085,255,0,0
-3.828342736718586,-0.8558567289812046,11.796323320838866,0,0,255
-0.5573539495234385,-2.153828943248479,0.35176534225277956,255,0,0
-1.1947880636745887,4.245912130457007,11.678307345365173,0,0,255
-1.7098647425799078,3.9053413152068597,11.08751442113088,0,0,255
2.2119326498351084,-0.7560341868936277,11.60606568319668,0,0,255
0.15884844765987371,0.22455932563692982,13.552156429265821,0,0,255
-0.24681850792472462,1.5901981345110296,10.274568398838829,0,0,255
-3.5787378532488656,-1.0845958861731657,11.07430082266648,0,0,255
-2.1310598370679736,0.6954239864163054,0.25594455114962245,255,0,0
-0.0711452748693862,-0.40113803526629455,0.15230949225811094,255,0,0
3.632264393375745,-1.8605547588723628,12.158912388691796,0,0,255
0.10704662407029641,0.011559603768355148,3.5138982664410565,0,255,0
0.270208569823728,0.46845356020284695,13.325295405571675,0,0,255
-2.567061656634932,-0.5466548548955628,0.08564229176999283,255,0,0
0.5223817431811804,1.1791987834642104,0.27955943945383843,255,0,0
0.7138391406495987,-0.40625660388129864,2.9069333838747844,255,0,0
-3.4354390628696825,-1.1108860945959014,12.240536730766316,0,0,255
3.9015635270988924,-1.315149037169758,11.556086572679169,0,0,255
1.3413630553065667,1.2755091732174346,0.238059104246805,255,0,0
-1.3236735053564987,4.220012522483424,11.162509522340034,0,0,255
0.2787395800958285,0.809531084888421,10.02336658641025,0,0,255
-1.6513395370734147,3.566793459787052,10.912929280856845,0,0,255
-0.36502408301820843,0.9527625998236224,5.919471790752513,0,255,0
3.652074545124395,-1.1973835649899573,11.28250962415917,0,0,255
0.6162116220355408,0.5055927550598384,11.755650950576884,0,0,255
-0.2792133032722175,-1.1451180015310103,0.33732777571303124,255,0,0
3.972831225354173,-1.459086665983659,11.326160488673136,0,0,255
1.2336287669997865,-0.7015930791415694,0.30137233679496755,255,0,0
0.7568111149668478,-0.30617524188464496,13.298066343219167,0,0,255
-0.0821397784836582,1.585236026518563,0.3850397651799875,255,0,0
1.9919740890456556,1.329540944201964,0.4074356009284904,255,0,0
-1.1242671506623483,-0.502739188039425,0.11025647255815962,255,0,0
0.25984654397271456,-2.078650186613202,0.29221832809899007,255,0,0
0.5300664018753205,-0.5793702753087573,0.0010055813433851096,255,0,0
0.2422783726681058,0.7998570380457871,9.949560570864374,0,0,255
1.2949735172388335,-0.5218105432680415,5.012946532457951,0,255,0
1.0523321178435907,1.6853342796687572,0.2569502335408142,255,0,0
0.5592800710021096,-2.299321054453136,0.24397898525860978,255,0,0
3.7087571901710374,-1.7459890237830846,11.999357363109272,0,0,255
-0.29371290230566527,0.4383829628442504,13.47974252587904,0,0,255
1.6457294428066518,1.9892344445139276,0.03950282369251511,255,0,0
0.8838494034089613,1.3473349050140928,0.2557724590489302,255,0,0
0.3010180672233101,-1.191714684513812,0.2866608679059411,255,0,0
0.3609433166470343,0.4533090893124776,13.39374775469928,0,0,255
0.16023167656074738,0.18423177682867825,13.53362994319809,0,0,255
-1.0247237831677218,0.41756555708641113,12.949854317950752,0,0,255
-3.4845677293882003,-1.0234853823051546,11.083368285855478,0,0,255
0.023959360095531436,0.025587185498937643,0.1972668093158314,255,0,0
0.7499270124112816,1.6897294231577216,0.2980384087100951,255,0,0
3.8294161670853937,-1.8691128539338262,11.542608582380684,0,0,255
3.7287807314063874,-1.9474906321612178,10.882011241426458,0,0,255
-0.4021128602154052,0.4922132178106172,13.39195604619158,0,0,255
-0.28955007505180075,1.3214897784070911,0.35010711872596345,255,0,0
3.728308850410982,-1.8361232936552414,11.550554187551178,0,0,255
-0.8410458757856334,0.7447084551491971,0.14472847127465893,255,0,0
-2.197967334927341,-0.7429079532314181,8.03307387685863,0,255,0
1.4229571077341832,-0.5751374356215332,5.228932004721621,0,255,0
-3.5716704262392067,-1.054833846264457,11.611159157627467,0,0,255
-1.9959808537492822,-1.248015656148363,11.649923893935703,0,0,255
-2.0044781374561573,3.7665391629495577,10.905995618678922,0,0,255
0.14420051177399631,0.558189214470042,13.237790570213756,0,0,255
-1.6076089942707723,4.186931818435492,11.633744017275962,0,0,255
-1.0252831242313118,3.8694879736205054,11.016859022902787,0,0,255
-0.4820582669065031,-0.2209351587205265,1.495749016787735,255,0,0
1.7515756307930443,-0.6693228800683737,6.158935654477872,0,255,0
-0.20034251562172006,0.5189370592045517,4.806422191945845,255,0,0
-2.238488061769167,0.6794107782728733,0.24045338002200498,255,0,0
-1.0400107457565961,0.4849201240745531,0.2625095452833095,255,0,0
1.499507811729019,1.1230785309307674,0.45178807284050404,255,0,0
-0.6785320445397349,0.2900456554390212,12.955981137216904,0,0,255
-0.4198790888988229,2.3511568907463785,0.3342503885051184,255,0,0
1.4047527786166754,-0.5828422005595206,10.068865532681107,0,0,255
-1.866516529435207,0.5207559246656325,0.3032649052227306,255,0,0
1.6476920484241804,-0.6728320797366111,5.891097360925718,0,255,0
-0.9889662640636063,3.9798424527477954,11.002049799758396,0,0,255
-3.671280111575337,-0.8845944432608832,11.670555351574428,0,0,255
0.21288568301197774,-0.2699650824759573,0.21812368414900601,255,0,0
-3.5971660010352338,-1.0840778772487654,11.591444152551775,0,0,255
-2.1450296017219364,4.0463350640425055,11.21434808648142,0,0,255
3.969007477766726,-1.5601861961509689,11.840765743098103,0,0,255
-0.1125231102886053,-1.5917396850927745,0.3805214169497835,255,0,0
-1.2177810790253434,0.9784750949477965,0.13191525411278313,255,0,0
0.3638888013874359,-0.05617834735361978,13.513989910075601,0,0,255
-2.0878499312321654,-0.680723012664465,6.9613639603889474,0,255,0
-1.8066101259634548,-0.5878922847081207,5.100384526486393,0,255,0
0.6885230171879047,1.5725185170369256,0.29630066586383563,255,0,0
1.6296311023507266,0.9736706400996445,0.23172359173093535,255,0,0
-2.2998913549023428,-0.5838959896932187,0.18718438150164082,255,0,0
1.8244600639950226,-1.4445790677958827,9.867944572937478,0,0,255
-1.347459553404541,4.2416566810838985,11.151642366473524,0,0,255
-0.456635613567094,-1.9564184205659085,0.36372767292499975,255,0,0
-0.342801983914909,1.8582600995615872,0.3791869124670908,255,0,0
-0.5373997733813587,1.9194502940697165,0.4040239287330394,255,0,0
1.1767780546368867,0.6614793745891193,0.38453256561354987,255,0,0
1.0704594957862594,1.194037395949912,0.2275620410865164,255,0,0
-2.625263580339827,-0.3389372305812622,0.08165308928059026,255,0,0
-0.6820436045691978,2.1184725967952227,0.42028376006528656,255,0,0
3.9592957209448203,-1.1904901231385026,11.738374947326346,0,0,255
1.1870261595616023,0.566263632277431,7.851146567724392,0,0,255
1.6228704200186672,0.22093402871658357,0.1200766629666778,255,0,0
-0.09467304645121716,0.7868980373057217,13.036107173765595,0,0,255
0.6349225212664976,-0.3598219905369803,3.054835403841483,255,0,0
-0.5863079012379901,-0.09247676730966253,1.4212359193044266,255,0,0
-1.403860090353537,1.3390711031708138,0.011128279739103427,255,0,0
-1.4686648949174732,-0.3745888345206514,0.2691427166644872,255,0,0
3.4466239860489654,-2.0088281721148302,11.579185982621414,0,0,255
1.441341627448042,1.148347505694374,0.23890045992009062,255,0,0
3.894523613470547,-1.445242173250859,11.47121703422281,0,0,255
-3.674107287918627,-1.4465801936056857,11.64667742612735,0,0,255
-0.4632707213448064,-1.8418491096212193,0.37104562717411754,255,0,0
1.0634503833328997,0.2807499299423315,0.1979816912085644,255,0,0
-1.458829900881576,1.9767963765476786,7.339405203540266,0,0,255
-0.16606540363266156,0.7802212052037326,4.596456113592616,255,0,0
-0.5663231803565484,-2.508584320207508,0.27162922070159323,255,0,0
2.565840420576266,-1.608529235990595,8.225897049020848,0,0,255
-3.545441180889021,-0.8083840296480396,11.428164049873466,0,0,255
0.4965515671839039,1.6286906950540083,0.3007084870263391,255,0,0
3.8598772741749254,-1.8883559566134156,11.481783846109133,0,0,255
0.3052131486548584,0.5558142803543176,13.351915246873022,0,0,255
-1.2672598832392246,4.244455707036803,11.646447341191095,0,0,255
-1.4502542943473127,0.1633442369678949,0.28406521867661194,255,0,0
1.78933359079921,2.081520792456284,-0.025048653488942148,255,0,0
-2.1946322403963494,-0.7582322261253155,8.438199193612004,0,255,0
3.4957996529136444,-2.0404121422614665,11.676081727868194,0,0,255
3.990989053483825,-1.2242162694498488,11.770163926218324,0,0,255
0.09843405388640276,0.18294856342646068,13.562223709377367,0,0,255
0.26335592921533735,0.9589906098786856,12.92066360661768,0,0,255
2.6472603159643326,-1.7127390678118946,8.382226349846379,0,0,255
-0.4665955328666288,-0.3796418877078778,12.767593622424581,0,0,255
-0.09493101631960002,2.105356067425958,0.4055748587822246,255,0,0
-0.24330319876357873,0.2492875454941733,0.1397846831386572,255,0,0
-2.4542886321620268,-0.18498892232028125,0.17553018171231244,255,0,0
1.0790513725365771,-0.8474958479998047,0.29765719113325223,255,0,0
-0.3698433763679484,0.5076839701071469,13.444952306680698,0,0,255
1.4863498241047655,1.4237979706937358,0.21485024138943812,255,0,0
3.6902170379984973,-1.6755913031544687,11.979653950993054,0,0,255
-0.17693351329246085,0.5473640402234594,13.121420771313824,0,0,255
-0.05690179582464032,-0.2650612276476409,0.2772750191819225,255,0,0
-0.3388505778280928,2.8497060875378777,0.2168174644280026,255,0,0
-0.532708858499686,1.358922702222518,6.587976929725814,0,255,0
0.4753159415515392,-0.6454175924372825,9.605019351196361,0,0,255
-1.652610353896908,3.81709638403316,10.534715267403968,0,0,255
-1.5289518105145397,-0.4965254093871173,3.9100718127817866,0,255,0
3.8366376624452765,-1.509950625355001,11.396770097848693,0,0,255
-1.0280171945053904,3.9257171179846195,10.99597316573904,0,0,255
-0.5305105458406963,-1.7490614709923595,0.20474371140782738,255,0,0
3.72197585864964,-1.802809204807746,11.464792096437812,0,0,255
0.42950959124388965,-1.3155421359114121,0.3235192207089721,255,0,0
-0.6853303931283009,-0.171839097244505,1.1136972655284976,255,0,0
0.32151013949935014,0.5854053222452047,13.033699387842796,0,0,255
-2.172023930794035,3.409668626533974,10.521984082700717,0,0,255
-0.2617012332749892,2.6714780402904474,0.2841339841924898,255,0,0
-0.42814606493727814,-0.09910174124183459,1.6197522761576604,255,0,0
0.4007743749491025,0.45452433118904034,0.20699717588719696,255,0,0
-3.412294162992078,-1.1183570181115865,12.258425848003615,0,0,255
-3.4987055660643103,-1.3890026803111368,12.0465259774381,0,0,255
0.18249574570308486,0.5138398247003648,0.2631222013580742,255,0,0
3.7448351893886267,-1.0029903311319224,10.745910098982415,0,0,255
1.0648559434752873,-1.059938311089728,0.3782911012045853,255,0,0
-3.471904076883253,-1.7188816814461452,12.002590522182196,0,0,255
-0.6489618530072568,2.757107256907586,0.24468110823938066,255,0,0
2.1169278801044973,-1.2631586478490369,0.21124709649788848,255,0,0
-1.7411462158359403,0.6818559428017456,0.2702135188020449,255,0,0
-2.166853679626037,-0.7453203844577794,7.762194154030902,0,255,0
1.383836371872658,0.952402638852986,0.24199141772433358,255,0,0
-2.1366052060764313,-0.6970964778892419,7.467870460796807,0,255,0
-1.619968598407573,-0.5714039566768553,4.340116187415972,0,255,0
-2.545490300549333,-0.5185325076075125,0.09226917252766795,255,0,0
-3.518031629846657,-0.3930157651541158,10.787452104617115,0,0,255
-0.6887001171944649,0.39842746165331827,8.309633115141848,0,0,255
0.8413679817292397,-0.3148887463279321,4.164733355459915,0,255,0
1.8546127880229968,-1.0087461698889582,0.2955011905602496,255,0,0
1.0270926077504459,0.09760676472170697,11.063967765691558,0,0,255
-3.361490979876362,-1.1012917571336702,11.451994874651792,0,0,255
0.6410360512760103,0.5674494873613336,12.649114988699745,0,0,255
-1.9599956959011333,3.824355430240457,11.129353554861854,0,0,255
3.796734672661534,-1.5209763289796039,11.390015446901117,0,0,255
3.6303967444618577,-1.8432085642837839,11.302557350839376,0,0,255
1.3669301949938544,1.7108603336512602,0.16690543446184325,255,0,0
-1.6035982753536007,0.003164333600478589,4.108643998228601,255,0,0
-1.783204877560768,3.92385682915088,11.031090357072205,0,0,255
0.7585254864053745,0.5500747587493416,0.2015286452251758,255,0,0
-3.1636302093391886,-1.7187347778132671,11.962209843664294,0,0,255
0.5264796880543022,-1.5549896777455052,0.3499807803118854,255,0,0
1.0920444159370468,-1.536090356577656,0.364631292002707,255,0,0
-0.3027880393926702,2.3678035045313512,0.337738789322916,255,0,0
2.115892647983204,1.504031914181721,0.3885776852923124,255,0,0
-0.1650707728565223,-2.1553238988238257,0.37844972891372863,255,0,0
-0.7127923426434901,-2.083313274112159,0.3979065206565827,255,0,0
-1.8420708449131649,-0.6284039883486622,5.143031227788506,0,255,0
-1.804354866278604,-0.5799970244543564,5.016067497958046,0,255,0
-1.2467373515048283,0.596514970949988,0.2706800131451833,255,0,0
-1.5458006074000574,3.9858466773961903,11.054582192659364,0,0,255
-0.7429053254448938,1.7809268363541046,7.78412619431675,0,255,0
-0.2178703382280557,0.6671011929159886,13.174694818260196,0,0,255
-0.9593388363023893,0.21444780080902812,0.22744299313709607,255,0,0
1.1013086596216244,-1.364613630157301,0.3643998219302214,255,0,0
-0.2252876185810297,-0.11126039038035646,0.04564337980811022,255,0,0
-0.629126991845016,-2.725350115565512,0.20654717104127898,255,0,0
-0.4631485577783305,2.098187830329834,0.37580604490599917,255,0,0
0.394515675895916,-1.5645638606993013,0.3185543011904634,255,0,0
-2.0669704011373806,-0.7123969518440154,6.970572568121335,0,255,0
-0.42984257813614224,2.498083889245831,0.30206094629233565,255,0,0
2.5286046116867924,1.2500007579068364,0.32860491179598583,255,0,0
-3.6762982766179277,-0.8977232763774481,12.128691309126506,0,0,255
-0.5351033542567764,-0.6645678566689104,6.963217729581787,0,0,255
-1.8119289194402977,0.16157046327501265,0.30265664601403647,255,0,0
-0.15011407833335338,0.021753209421107776,13.5109544659666,0,0,255
1.5831762968444463,0.8326692710232664,0.42759865511736983,255,0,0
0.23079902137017705,-2.108213307521174,0.29308605486750683,255,0,0
2.149047288561623,1.304710106157709,0.37647477243702554,255,0,0
-0.3154448269228058,-0.5610348406783651,2.380780957869943,255,0,0
2.2869758606943287,-0.7745155595385651,11.603806478574084,0,0,255
-0.23746052973353307,-1.9029853445931213,0.14672188816259993,255,0,0
3.977574801162446,-1.151931282727413,11.850519689979754,0,0,255
2.086454558059443,-1.204498784913579,0.2307887252366674,255,0,0
3.836549915781198,-1.9105133813480404,11.508315709147622,0,0,255
1.723130300942551,0.9763364349099294,0.22793322883090958,255,0,0
-1.5340566199710906,3.7721072011973207,11.030018126230324,0,0,255
-0.12662501057633901,0.6884802697034111,12.995900961886456,0,0,255
-0.17606159564639418,0.424652851151526,12.828005836426762,0,0,255
4.042450796466433,-1.671521292799298,11.391510217797661,0,0,255
-1.2182366146285262,4.180776467966307,11.541823953585503,0,0,255
-3.553206843548464,-1.5147599853644178,11.545002999439362,0,0,255
-1.2966430170177445,4.2746526766370705,11.225735327519459,0,0,255
-3.7375812567499387,-1.0639017064981378,10.83145050851472,0,0,255
2.1145842247618267,-0.8449862667991475,8.027619520016973,0,255,0
1.018409356691858,0.6173988397941967,0.36609133444987074,255,0,0
-1.6196036808568435,-0.5106514191488051,4.289721729910786,0,255,0
0.813383582754883,1.1988223868434509,0.247078115870445,255,0,0
-1.6270819226444495,3.525842144219001,10.864561203454963,0,0,255
1.0556903035659027,0.2946439801345655,0.20202158854026567,255,0,0
0.4162284942356211,-0.02182606588676915,13.398728754673224,0,0,255
-0.39014790899816254,-0.3898515290305421,12.820958937428376,0,0,255
1.1576044061771174,-0.9492091819172653,0.30706488724715775,255,0,0
1.182030259952585,-0.47370227297838713,4.718899085677914,0,255,0
0.9290984724323887,-0.580005350102322,0.28216464603571206,255,0,0
-3.4124563821532754,-1.208386367016565,12.16642591766176,0,0,255
1.1948335791910443,-0.48665576401865984,4.7617652482918285,0,255,0
0.7218025620687916,-0.3865592620350433,2.8278367791412187,255,0,0
-0.6368268736034702,-0.1754329061080806,2.326268995766914,0,255,0
1.5628961448730978,-0.9574309523122537,0.2975668898784163,255,0,0
2.1894267484380414,-1.3181288195811416,0.18229986491819888,255,0,0
2.1065563032651884,1.114977565528115,0.40491548058517857,255,0,0
-1.2852742160222401,0.09345270186007774,0.2827143195690715,255,0,0
0.3105781059140594,0.5059272655301602,13.322048875124704,0,0,255
-0.5430788556194837,0.5952046593588016,11.275197172430616,0,0,255
0.42441532283893746,0.2049003478239344,4.501797435546392,255,0,0
0.1912662575985034,-1.5456436511462168,0.31019234809276774,255,0,0
-1.8450585181552879,2.0272437912378107,9.174577834468543,0,0,255
-3.792501672322844,-1.2353393876163978,11.50880009005582,0,0,255
-0.497033010104038,-0.12697893245706085,2.186002718660682,0,255,0
0.8083454877569594,1.3863859623730246,0.3366624753993794,255,0,0
-1.5483907748724497,3.979156278354931,11.04835092129235,0,0,255
-1.982786673203949,3.9187066625711173,11.39968349327814,0,0,255
-2.518730987033892,0.9431654727590802,0.099440551123892,255,0,0
-1.956828920656502,-0.18001270915822926,11.368214360126272,0,0,255
0.6684356972952313,1.2611250852597895,0.3087662931281627,255,0,0
-1.9738617105576028,0.7962705607189785,0.24202889702041433,255,0,0
-1.5353283461499025,-1.140380729275651,10.245559882279213,0,0,255
-2.1856434923786923,0.5262898232086362,0.20929477831307144,255,0,0
-0.6203647090347001,0.10966285571231167,0.2204835077647813,255,0,0
-0.3293175025637956,1.6636115898547108,10.137847494043879,0,0,255
-0.5652636048526537,-1.8763062243703428,0.385874290032927,255,0,0
-3.108038679950599,-1.5149226623134313,11.145508543114914,0,0,255
-3.151628753220394,-1.6671596034479181,11.991906598814907,0,0,255
0.1306954649755741,-1.0296879400479098,0.261986342655373,255,0,0
-3.596509607772398,-0.7964165990561223,11.388189008573942,0,0,255
3.9756887322271743,-1.4182081887659095,11.342174892820736,0,0,255
-0.3051252995581348,-1.7127128301961667,0.36228516533708127,255,0,0
0.5938197076348397,1.9921653916385107,0.2917707003190518,255,0,0
-3.2049380926675015,-1.6213674338226274,11.143010449626507,0,0,255
0.11550599043739157,0.9345537531314918,0.0819219936147296,255,0,0
0.8222319443430308,2.4765533969254783,0.17115594218129243,255,0,0
1.8822731488271371,-1.0398746174137306,0.28696542495944083,255,0,0
1.131498656097381,0.11128069277362185,11.209465216153628,0,0,255
-0.5253922732739341,2.1099526532485458,0.38309066879247516,255,0,0
0.8931109298104303,-1.289619967156101,0.35136728383842697,255,0,0
-0.9228370255726313,-0.23289587275726883,10.735797947329619,0,0,255
-0.15925551581044528,0.551678974670966,13.067812590334313,0,0,255
-3.716820867815624,-0.9136286866092099,11.911672869167166,0,0,255
-1.320457499159336,0.4039900481191404,0.27810114478559744,255,0,0
-0.7238574110071395,0.32802527294881023,13.006398114073587,0,0,255
1.0495331705312974,2.559942247137398,0.10959940529044158,255,0,0
-1.380800352178437,1.147381474959223,0.07572310314496448,255,0,0
-3.4622362160580646,-1.5082813968319277,11.470723008887008,0,0,255
1.9782813422869265,-0.6110086794308911,11.549116978521944,0,0,255
0.45823399059582937,1.8581943636230522,0.321091595433966,255,0,0
-3.749646456951819,-1.2348859230271665,11.534112813020755,0,0,255
-0.783272898290742,0.49964328190837004,6.614274743147126,0,0,255
-2.0936140315427476,3.4084267960695005,10.641902005044937,0,0,255
1.9251284227249066,1.273550665247684,0.12061355741859656,255,0,0
-3.6911101242725524,-0.6881458790147383,12.099034471615747,0,0,255
0.750794959227983,0.07252469412923546,10.782442472480867,0,0,255
1.348885368076342,1.6126208468050822,0.18390480006746157,255,0,0
-1.9758908286907475,3.8182800456430375,11.136088493483015,0,0,255
3.6338334332702145,-1.7811775891105766,11.355619156716958,0,0,255
-2.3067985493112797,-0.3326330911607855,0.17814291820325984,255,0,0
1.8162377410695412,-0.7187666117649136,6.557441579284343,0,255,0
1.1754290007489405,-1.2902895887626156,0.3786881171203622,255,0,0
-3.847323239416805,-1.5035697069545448,11.673267529508687,0,0,255
1.7232131923884395,-1.050009503765642,0.2873649989381303,255,0,0
-2.171697192522789,3.42412343525236,10.509784205815235,0,0,255
3.95812128774432,-1.7164226913543912,11.379799520766436,0,0,255
-3.8433921682615146,-1.2845768983480286,11.534260939137798,0,0,255
-1.8019922788315272,4.113309765278228,11.326879462537912,0,0,255
-1.816366989000442,4.010230072545463,11.298338839916468,0,0,255
1.545864546255453,0.784773060350189,0.4270289396510109,255,0,0
1.4800376703206586,-1.4113759963836863,0.343696196466693,255,0,0
-2.108498064707735,3.999692466996067,11.21763412317163,0,0,255
3.8787771063194882,-1.9412351957906102,11.495581386513308,0,0,255
-0.5185206722902004,-0.6783346888920176,6.924204829208135,0,0,255
0.25780787638401986,-1.1376663360945445,0.2752577946180067,255,0,0
-3.7814296351153187,-1.4302789920663264,11.587025364087953,0,0,255
-0.36019959358529596,0.7479764063243294,4.487232698355108,255,0,0
0.6399986078769411,-0.3307315298698451,3.05123075674563,255,0,0
1.8468057082904514,1.0472333517559225,0.2010812289209991,255,0,0
-3.7143963424046404,-0.8302644415308971,11.674727590279241,0,0,255
-1.9048386079295732,2.3470319373712636,10.926321261354035,0,0,255
-0.7759333390230152,0.5162402051782998,6.549952425882569,0,0,255
-1.0314481897065217,1.1818330317384844,0.1300839353790202,255,0,0
-1.8553529739019257,0.45825694751003143,0.2702075078204009,255,0,0
-1.451352147900273,4.202612594739453,11.318830894095585,0,0,255
3.721709737047286,-0.7735636630383335,11.076700378611616,0,0,255
-3.601002655325206,-1.3803704624343742,11.980840726521535,0,0,255
-1.3434450743222346,4.248541124027762,11.160888913106378,0,0,255
3.9158224454818593,-1.170435201626592,11.914439982481456,0,0,255
-1.8390287599749138,-0.6411766561840009,5.251417180656505,0,255,0
-2.116948753736139,-0.2234831680392604,0.23222432800363846,255,0,0
-3.832234244496919,-1.3048524957040746,11.565875325777068,0,0,255
-0.46491500110876083,-1.622835425593359,0.21244668347027573,255,0,0
0.7797168229869371,-0.8902570236964518,12.615747004677583,0,0,255
3.9222457872388405,-1.2030378363212688,11.91924962676693,0,0,255
-2.2529304452759367,-0.5458299867010825,0.19499038057501572,255,0,0
0.920778795983829,1.3287529577319959,0.2457628445631676,255,0,0
-1.7111173717392312,0.911530407656904,0.27585700051583717,255,0,0
-0.8258059043814591,-0.2993042653381577,2.5894776139481324,0,255,0
3.74711272617273,-0.771288527899689,11.217881060585448,0,0,255
3.589470864175873,-1.4702880576333275,11.273480096422901,0,0,255
-3.5954469562007327,-1.3844601978608417,11.916955527055887,0,0,255
-0.7281253603416264,1.732312022247577,7.7030271093042275,0,255,0
1.6627486016584783,-1.0906460691376898,0.2843245924795468,255,0,0
1.7415335681069188,0.3263244326419179,0.0961932303525236,255,0,0
0.9160153810654938,-0.7498899109733743,0.30064939134713475,255,0,0
-0.7737040102393371,1.8767987694812636,8.13896879599125,0,255,0
0.5115071311309003,-0.2849839715692379,3.2060417997372976,255,0,0
1.1087392640184888,-1.3124750527508589,0.3662409400465058,255,0,0
-1.6976264579878213,3.831795861973817,10.483156233251021,0,0,255
2.2776473461294353,-1.477226654838956,0.11644169279302319,255,0,0
0.13456350137067996,0.21144017081038607,13.63546987596646,0,0,255
3.5947841158609846,-1.833453966628037,11.343228191451663,0,0,255
-2.250906300211387,0.34288763360127616,0.205761489421326,255,0,0
1.9161091369962913,1.029892998846035,0.4265225137146669,255,0,0
-0.3386669513040234,-1.6761030495900566,0.1848274561081463,255,0,0
-1.5477443611414328,4.173113160604673,11.57561891515828,0,0,255
0.4135543575150695,-2.187675489250524,0.2623408827555232,255,0,0
-3.7592713718563497,-0.9185184957261177,11.713327113842318,0,0,255
1.1495912808752389,-0.4636096240213414,4.726560042337146,0,255,0
-3.6219372988378726,-0.9479250422891443,12.160709812689689,0,0,255
-0.22342299148163197,-1.9920491136214618,0.12650158696373442,255,0,0
2.2783171133664544,1.4658422576514205,0.33779743026658376,255,0,0
-0.3022093670126226,0.45994635878971935,13.344781176572841,0,0,255
3.9283057420843184,-1.2374518792053846,11.614430106963933,0,0,255
-0.5198183279429152,-0.6200634768036806,6.8782043031981965,0,0,255
1.2779732102225252,0.5922797978159379,7.973957682353937,0,0,255
-2.082932737890715,0.9952828964419435,0.20998766072076303,255,0,0
-0.7168718578751982,-0.1294923954163959,0.25708214210957603,255,0,0
-0.31981995422025256,-1.92592701576313,0.362956301442296,255,0,0
-0.45170747828519475,2.903366163964005,0.18056167447036284,255,0,0
1.8065781845123239,-0.6939974771790891,6.458912420194425,0,255,0
0.6330082339925361,2.3506900299922915,0.25111075168452573,255,0,0
-1.689461020885422,-0.00860392207592518,4.071556898610732,255,0,0
-3.7162449980336603,-0.9243048647046808,12.118732226171467,0,0,255
0.17088428099190617,0.4110628291872306,0.24152162389034332,255,0,0
-3.6950499368776937,-0.8970999141874406,12.159518067372797,0,0,255
1.546666849411489,-0.7429052660090345,0.33438983341778844,255,0,0
-0.8338518886489663,-0.2793690520556439,13.053394874474124,0,0,255
-1.3692869923401656,-1.0216566478711102,6.809326654361084,0,0,255
2.072296983200859,0.9950527741149712,0.4336565731602967,255,0,0
-0.0849246596403398,2.263567942873075,0.3999290072708189,255,0,0
-0.11265499637638672,0.7484529661322274,0.32102792562428334,255,0,0
1.0959892847734078,0.1344792091291548,11.16174106102438,0,0,255
0.8758596037183624,0.11634201473094583,10.911367592784039,0,0,255
-2.1433458032428634,-0.6156364954629806,0.23810043718538393,255,0,0
-0.3134954167429504,0.6096614732660819,13.111282900677857,0,0,255
-0.2780986487022848,-2.596324586220641,0.28246626576276695,255,0,0
-3.4621062984648896,-1.1242147872647525,12.257648779257288,0,0,255
-0.22072282086795852,-2.2087851706246435,0.3607150862891749,255,0,0
-0.07869349062207003,-1.743998231756922,0.399009551145725,255,0,0
2.026939069699047,-1.5395189474053563,0.18355596425869858,255,0,0
-0.6299150101135242,-0.12465735686782506,0.23678326846971365,255,0,0
-3.533512198960616,-1.5827928618963996,11.525044143324028,0,0,255
-0.48027934203904254,-0.4144863107032739,12.74626799903934,0,0,255
-0.4934150539209129,-1.8002978327522055,0.18213275366198844,255,0,0
3.9609798592474754,-1.6090787980588621,11.393685272950226,0,0,255
0.9007940794082502,2.1232222351590897,0.24503499490240996,255,0,0
-1.6948352284347106,0.030688808785400604,4.019576490078521,255,0,0
-0.29934159502397695,-0.05239012246036391,0.04405189055976007,255,0,0
0.3761380110048428,0.015214068867236396,13.470142972070404,0,0,255
-0.23220811355105175,-2.1739271631592563,0.07382903853382214,255,0,0
-1.968731473746058,-0.5082627953618197,0.2538642688584191,255,0,0
-3.548354942014724,-0.8594480098288009,11.400356112017807,0,0,255
0.0984170192427817,0.10697650579303261,0.1704203395725364,255,0,0
-1.2553418055684562,-0.15887849554068711,0.2508686787366155,255,0,0
1.5480705106510477,1.1863322341563185,0.4595072267222975,255,0,0
-1.007381522878251,3.9757124870540976,11.067065742288776,0,0,255
1.0321313241721035,-1.4459940647910559,0.36349114073143485,255,0,0
-0.03153091647666095,0.4061156845865244,12.86606901578021,0,0,255
0.11179019531777856,0.15452116517163753,13.552484251827174,0,0,255
-1.0563289092031325,3.8457954462702895,10.444491466626042,0,0,255
2.5699068122221487,1.5417233284740122,0.24616168653358184,255,0,0
-1.96876385151308,-0.6287976310665893,0.28143169455109174,255,0,0
1.4001859674150676,1.869644469902713,0.14200310512117395,255,0,0
1.7907589221510265,-1.4498050074559994,0.2594502912863918,255,0,0
2.625459917042022,-0.2757589069470662,11.571910701786631,0,0,255
-1.215130241945789,4.191580684597718,11.552661533265722,0,0,255
-3.2490901095884537,-1.665433292444294,12.040904477562279,0,0,255
3.591046201904102,-1.886624420987179,12.002380772312229,0,0,255
0.27962504711042324,0.9740143148715751,12.934430795154677,0,0,255
-0.2715818801126916,0.6278991653774763,4.676648370076495,255,0,0
-0.1523894340544178,0.6528682765910168,4.719312341151708,255,0,0
-3.5819376053821084,-1.0810920111240285,11.56274947036088,0,0,255
3.7870500982938147,-1.6975937308666516,11.258694531595918,0,0,255
3.519327373304431,-2.1402125482213075,11.614085069338252,0,0,255
-3.4512868729058916,-1.216538368015918,12.256997705610779,0,0,255
-1.9275062547575836,2.6175324745565636,11.679141344897888,0,0,255
-0.5898210163923788,-0.3294565355621724,0.131463267437896,255,0,0
-1.4947528967744195,-0.20026693764178044,0.2587689925017601,255,0,0
3.967804042982637,-1.1584178753971464,11.849653345207361,0,0,255
-0.681999447232457,-0.4346824838989605,0.1532402699526303,255,0,0
0.08815136949860938,0.18562569304189228,13.577133076033054,0,0,255
0.17266581362044064,0.42991683135835657,0.25700876485090446,255,0,0
3.759582779082321,-1.744257741781158,12.071110901994155,0,0,255
-2.359729439391536,-0.6401937900725909,0.1780361419341891,255,0,0
-3.319012799975841,-0.9042836571643622,11.363321364379809,0,0,255
-2.1662662433989186,-0.6472288568108557,0.23967379045805506,255,0,0
3.999096263376954,-1.1151591160933478,11.944931045111753,0,0,255
2.0248280936181082,1.3618039764946406,0.0787490081274034,255,0,0
0.6778466114955611,-0.7909280040151614,12.54952423562964,0,0,255
-1.0406511252670183,3.907676859730272,10.36534268923422,0,0,255
1.390359960958,1.1945369511704933,0.25399736751285107,255,0,0
-1.2096158301456814,0.97579116364808,0.13233796593457464,255,0,0
-1.393111619934617,-0.4327752063228542,3.633397896066212,0,255,0
1.4652390745655466,-1.5318060039789358,0.3915737145537621,255,0,0
-0.9861591344803882,0.25726087079249194,0.23702659400727658,255,0,0
1.8266703464084477,-0.7096637700439556,6.568243209618849,0,255,0
-0.3216066699541784,-0.06930020290184764,0.2120492375773816,255,0,0
-1.826692453510942,2.346128736461315,10.886575911445435,0,0,255
2.1660831757413463,1.1009444988054125,0.40388856592517974,255,0,0
-3.6653774022170245,-1.439019619744446,11.63452132901736,0,0,255
-0.4772268978310365,-2.5486016542639964,0.2596701625257047,255,0,0
0.258902258172633,0.765021090653516,0.1222908185586937,255,0,0
-1.516642059703686,0.11174635631426202,0.30113058399351733,255,0,0
-0.23496074203307402,0.7992130263556103,13.120045887170448,0,0,255
1.536365370784278,1.2431931241806256,0.4745658501717644,255,0,0
-0.15458336419627086,0.7241197067327627,13.181099849928184,0,0,255
-2.183870764866096,-0.7549447951241256,8.297880231977842,0,255,0
-1.5996454727042746,-0.5040432789335788,4.203103434905172,0,255,0
-0.3889785323718532,-2.014558248798288,0.3582479534788118,255,0,0
1.1244386378924462,-0.41638699642711935,4.657624328771212,0,255,0
2.4955390738839265,-0.10048108988887233,9.42166360705539,0,0,255
-1.8739078841798953,-0.6518950741592145,5.421656098154937,0,255,0
0.26844650125236724,0.480942084858318,13.347413700132996,0,0,255
-1.2221335750460212,-1.1401525827993086,7.090612705464,0,0,255
1.1130430731862886,1.4601743419397035,0.22538661721608158,255,0,0
-0.5498268966768699,1.3250306067722106,6.519575361788078,0,255,0
-0.5488773330900967,-2.7259682549118303,0.20141728680987275,255,0,0
-0.8213371926250282,4.1027359989357715,10.886650192244,0,0,255
-3.488693612245344,-1.0115913163975923,11.042707653820418,0,0,255
0.2948856561607076,0.46788396671713106,13.360669622429537,0,0,255
0.2838502753472917,0.7596274325009519,0.2530909908658195,255,0,0
-3.3587136785042597,-1.1350865984285543,12.183559132019987,0,0,255
-1.6137346768171192,3.848186441364147,11.022538318822058,0,0,255
-0.09313159365497821,0.1995412492426539,5.159473384029335,0,255,0
-3.445558300142598,-1.1977054510798086,12.23231392099733,0,0,255
0.7141867173519114,-0.2827576592337647,4.0235229925023415,0,255,0
-3.7095356122209795,-1.3461067735471222,11.980968295142818,0,0,255
0.9605310988182918,1.3393636397883157,0.24026675594467606,255,0,0
3.906184104241378,-1.3042432858080022,11.616229033860836,0,0,255
-0.6333785902495104,1.6098467952313722,7.234774945724346,0,255,0
-0.5530884982227403,-2.3158865329009948,0.31970169358037637,255,0,0
-0.19343141579684023,2.2194626318179242,0.3749846104209392,255,0,0
-0.3294108410265885,-0.5586194520200374,2.268031292988103,255,0,0
-3.6205748164283786,-0.7205791293040211,12.034504018537433,0,0,255
-1.9441890522700023,3.814182690389549,11.116376934840176,0,0,255
-1.88421832295984,-0.10630941477598731,11.470255717113623,0,0,255
0.6918574724169153,1.6536512205654414,0.2949079983917103,255,0,0
1.5730081193940357,0.3436933762156099,0.1496739751290768,255,0,0
1.3797248417463415,-0.7128771380715828,0.31801621634779254,255,0,0
0.11715881400212688,1.0823699062755747,0.04643853897008081,255,0,0
4.111931564942131,-0.9741549030988723,11.57007176161121,0,0,255
1.084469939929384,1.7393918643566884,0.2508845927899315,255,0,0
1.255493671797682,-1.2023334470547349,0.3475151413823167,255,0,0
2.1375988464222213,-1.3363079566040317,0.18598486612230863,255,0,0
1.8458231424386524,1.9659539278832048,0.00904605271615365,255,0,0
2.029433473338681,1.3392473008208108,0.08383209706331114,255,0,0
1.7866427100290894,1.1424435946710467,0.17824931911232067,255,0,0
1.2771932544529727,-1.8135661257299107,0.34284433374412104,255,0,0
-0.6792942961016405,-0.8705933359456358,7.2986991093332545,0,0,255
2.2902712673446546,-1.3436477334181918,0.15932693375433687,255,0,0
3.432007474690754,-2.0073600875201585,11.688180836825522,0,0,255
1.0181466697758204,1.437285984615307,0.24055453823463918,255,0,0
1.3386888716830772,0.23121418720078885,0.17628594241818174,255,0,0
2.1652860886067935,-0.7297309230536697,11.595650288518737,0,0,255
1.9657098667049167,1.339286560961882,0.0962606660234859,255,0,0
-1.4214017920426456,0.5259277246435587,0.3094223379729282,255,0,0
-0.3512013243182099,0.46595362766169757,13.52206236630067,0,0,255
-1.0126309198385652,0.22322508173616185,0.23275915197272506,255,0,0
-3.7104564243680582,-0.9007658479493157,11.630987216666723,0,0,255
2.47933735345229,-0.4689538700547829,6.411088115640967,0,0,255
-3.645055913367705,-0.890434240296072,11.56818553367997,0,0,255
-0.2184418550743592,0.568342228287626,13.133064109785487,0,0,255
1.1461086730540826,-2.069679490445955,0.3769522096757595,255,0,0
-1.614100957197472,0.5317793393251248,0.28777920279210273,255,0,0
-3.5345956461368697,-1.0175031601534552,10.988262548606667,0,0,255
-0.7402862702765738,-2.4862916429110227,0.3077857059487757,255,0,0
-1.921919455181924,-0.6488020527417884,5.819687635380399,0,255,0
-0.7413724685870462,0.13489863525973422,0.22984291575755136,255,0,0
-2.497187815100089,1.0486132522966933,0.079421554848009,255,0,0
-1.262097460073793,-0.38825700299241306,3.289514839374295,0,255,0
-0.48643248968498676,-0.2670605765639693,1.4892572567098705,255,0,0
-1.5266465705599503,0.31976147797667953,0.27591885044595627,255,0,0
-1.894663155815938,-0.6130412249009721,5.516054308792004,0,255,0
0.060267112099381404,0.4454647716466931,12.872279528713525,0,0,255
-1.9355647632175454,0.6572077663899054,0.2928036379244806,255,0,0
1.3792858303548767,-1.6050247504746287,0.36587175139440886,255,0,0
-1.2650432995004977,4.006786790291382,11.072286214952934,0,0,255
-0.6157215140422304,2.852127162650423,0.20788410547493918,255,0,0
2.080785371203205,-0.8181655669551204,8.010493888102683,0,255,0
-2.4900798600276075,0.3030058617401648,7.375454412390631,0,0,255
4.117567869995205,-0.9187391282630277,11.522180753079674,0,0,255
2.087701332337407,-1.1151996312301757,0.25977685970122294,255,0,0
-2.031893191497147,3.9945505049451,11.174727717651034,0,0,255
2.090920776890183,-1.1548320322551096,0.24600453413540907,255,0,0
-1.5471251229151046,-0.48837803121259404,4.072932967391125,0,255,0
1.2853653856817728,0.8223487503681534,0.2455907839802059,255,0,0
-1.6250622705003384,0.5515544121014537,0.2847018482995917,255,0,0
-1.7608891539942997,3.9066737083810117,10.402865694307742,0,0,255
-1.0117501031489835,3.861187870370765,11.027858022889312,0,0,255
3.5705070247182453,-1.4986548922676197,11.333790391004989,0,0,255
0.29245136245654196,0.5475116642410333,13.061791605405402,0,0,255
-0.44919950103850176,-0.6193591286861166,2.4350971667496735,255,0,0
-0.41661247319765093,-1.57590650887387,0.36777333129536505,255,0,0
-2.1249642718364763,-0.6924884791254006,7.32071605466557,0,255,0
-2.1421080389309446,1.0001305712516328,0.19433612277545503,255,0,0
-3.4819338545866816,-1.3722459928605222,11.965771968284155,0,0,255
0.7674340664590809,-0.9043426254820104,12.592336212270382,0,0,255
0.8805927679301505,0.7588175899209846,0.23743106147529341,255,0,0
-2.1222988771648352,4.129757306848539,11.251323738568573,0,0,255
0.288067692614418,0.5793321537778623,13.060332251997767,0,0,255
3.756289559074124,-0.8002290721946862,11.216933391950123,0,0,255
0.8835196293571385,1.7486145118472678,0.3110777828730551,255,0,0
-0.22636223414574297,2.577966553401347,0.31299634493060224,255,0,0
-2.168301361724704,0.9418142826958178,0.19134122543107582,255,0,0
1.3783649634966384,-1.5751776006324747,0.3708665113534309,255,0,0
0.4256520681135619,-0.07682065854813923,13.430882220595139,0,0,255
-1.7453127151291297,0.8133919176241928,0.26439655098661574,255,0,0
-0.10857961180935824,0.6734683692014589,13.06299173396041,0,0,255
-0.380860759351467,1.7357588642161739,0.3805677322492125,255,0,0
-0.5463378970378299,1.7055230164247548,0.4164666680082898,255,0,0
-0.6355283372632448,-2.304840349787055,0.3336386420051013,255,0,0
-0.7423233641377536,0.43550118364218443,8.455150709320888,0,0,255
-0.06503487696974054,-1.7596213001890137,0.40382494124722884,255,0,0
1.4472451311225143,-0.9864992932148671,0.2941909725718172,255,0,0
-0.24702583120010868,1.888593177259197,0.3797914535090722,255,0,0
-1.9712097306457785,-0.1985801315701197,11.340111296633804,0,0,255
-3.2591785388683436,-0.4843076993556591,11.602752822176754,0,0,255
-0.21695179717088356,0.8134035398040269,13.257577145290686,0,0,255
-2.3961180946453053,1.2409346774206917,0.11483569866360531,255,0,0
-1.9894255713691715,3.9173002601112215,11.32951209071677,0,0,255
3.531631559281403,-1.8859785895791172,12.033674330634978,0,0,255
-0.5757116514507992,-0.2218589500268594,1.0004296532782078,255,0,0
2.370368922419449,-1.6958039226046666,0.043431864636365725,255,0,0
-0.3012982303310062,0.7689455044842644,4.48357120036685,255,0,0
0.09431744812417209,0.155987503014131,13.557105623061663,0,0,255
-1.5395080604111298,4.1366156799179725,11.479673736751081,0,0,255
2.3161231550333548,-1.233473162617171,0.20111422498802337,255,0,0
-1.5106688171648353,4.1558746771352135,11.020963307037489,0,0,255
-1.790675770950435,-0.6200188390550345,4.951060418462383,0,255,0
0.731527511149417,-0.26584111269857913,13.241226505761563,0,0,255
-1.6018901161105663,3.9503141421765613,11.058311629207616,0,0,255
3.802969597734772,-1.6931794734245114,11.205497455791981,0,0,255
-0.34108484423192026,0.8525607507211141,5.736128467460691,0,255,0
0.8013999785430228,0.7803494966696215,12.500804804504535,0,0,255
0.2609120326019926,0.5465784043798367,13.033755277781907,0,0,255
-0.9797775598306129,0.22139782762647117,0.22985344865299434,255,0,0
1.0910436496996752,-1.3264805801964272,0.36360674802651294,255,0,0
-2.5189547453366794,1.0756849385067755,0.06687076093173021,255,0,0
-1.090280161165978,-1.2177016812596833,7.2956451095539645,0,0,255
0.1682207592751706,0.20367947879130344,13.56350657983964,0,0,255
-3.5689881553357568,-1.5222448534655253,11.543838871267294,0,0,255
0.34813721822407334,-2.2969114079183353,0.23932031770830273,255,0,0
-3.1398174929274756,-1.661359450784177,11.97958328818406,0,0,255
-3.347627844730303,-1.5195719682930637,11.550732112353117,0,0,255
0.15754365344937976,0.41153240756975384,0.25731157230046425,255,0,0
-0.06677318488347048,0.3202264717332309,0.26499003556378725,255,0,0
1.8263786741799195,1.4383172589992523,0.4627437122191397,255,0,0
-0.5384525863982318,1.377675933569735,6.639873151261128,0,255,0
1.4453851532215416,-0.5413960882138478,5.286196303740179,0,255,0
0.3274128045542459,0.5330270308647419,13.373018175157306,0,0,255
-1.6882755651160177,-0.051555429205360895,4.127452922108432,255,0,0
1.7345409418915108,1.2647038901143604,0.17015922043633117,255,0,0
0.23383533676245483,-0.09115295555559255,3.6384724732593536,0,255,0
-1.8040947579835875,0.5950861433696142,0.29911883417190693,255,0,0
-1.3507697328857535,0.2336916455786134,0.2658604852362197,255,0,0
-1.6065262164122198,3.5891479869741625,10.906163100017283,0,0,255
-2.198683468806317,-0.7279704847097527,8.028242454346366,0,255,0
-0.3725378286084105,0.5178153646641457,13.516154975079367,0,0,255
-0.6128767157446605,-1.7027211290479873,0.4115906509133038,255,0,0
-1.0504245837968058,3.278338448664627,10.564714804009405,0,0,255
0.7360397953010387,-1.2948751800538223,0.3671592982947719,255,0,0
0.14653546755497315,0.5115799341708245,0.10174543392664828,255,0,0
-1.467393591258249,-0.3527479919700479,0.2653662662799121,255,0,0
-0.2864570970508267,0.5487346627727281,13.073549147440474,0,0,255
1.5812644887171248,1.3999672411171664,0.22564214585673786,255,0,0
-1.2750422389304146,0.46768412228271083,0.2956716863579453,255,0,0
-3.7435871988430147,-0.8985261803699449,11.706093195477257,0,0,255
1.0900730766691948,-0.7346379662457909,0.2864931151065529,255,0,0
-1.9824369184982504,-0.43276301558522623,0.24191263859696266,255,0,0
0.23347303064317906,0.7551737011143549,9.922367198094516,0,0,255
-3.9004883927549265,-0.8677599557995135,11.761502831224895,0,0,255
3.665469812826756,-1.804930079912105,11.518813389066462,0,0,255
-1.0164854824825298,0.4773416991314249,0.2623583320269408,255,0,0
0.8059840398359046,1.3211355173911832,0.2707231278230233,255,0,0
-1.8635846098734568,3.9009315044879864,11.8407381774022,0,0,255
0.7937808290685364,1.2159345712162946,0.2540475604310162,255,0,0
1.8787907023144146,-1.3489836692158585,9.637739340970766,0,0,255
-1.7862404115979709,2.700622920398785,11.597874398077499,0,0,255
-1.6249518733920925,-0.2797283076440966,0.258695254863765,255,0,0
0.09302138957361665,0.22861715744331726,0.22364924693600416,255,0,0
0.8177257400590924,-0.8989345989566869,0.3311000157002218,255,0,0
0.6357123402643516,-0.22130833124673222,13.14421172131455,0,0,255
0.16001019495386823,0.1947652016559481,13.604089178551028,0,0,255
-0.3106436435889782,-2.216085476327822,0.3439065023494842,255,0,0
0.5084827238431504,-2.46307517799573,0.1859014111487154,255,0,0
-2.542363320105318,0.9156423351454455,0.10251333277419422,255,0,0
2.3555717562611584,-1.9925863009120368,11.44942067382392,0,0,255
-2.12446431125443,0.2465480731893283,0.2536783332142499,255,0,0
-1.6654626135048112,3.8211379567466137,10.410414903305774,0,0,255
-1.947084836182301,3.854100588307995,10.902106793172928,0,0,255
-1.8750739093683004,1.0541510352629315,0.2656974937391117,255,0,0
-0.19654679609545062,0.5620310301263102,13.104565319233831,0,0,255
