-3.398515880107879639e-01 -3.394285142421722412e-01 3.245760500431060791e-01
-3.062474131584167480e-01 -3.227270245552062988e-01 2.530894577503204346e-01
-3.388614058494567871e-01 -3.377073109149932861e-01 3.009369671344757080e-01
-2.686011195182800293e-01 -2.617638111114501953e-01 2.970648109912872314e-01
-2.686674892902374268e-01 -2.625202238559722900e-01 2.781994640827178955e-01
-2.929673790931701660e-01 -2.812531888484954834e-01 2.722265124320983887e-01
-2.790427803993225098e-01 -2.473933994770050049e-01 3.026263713836669922e-01
-3.402051031589508057e-01 -3.375219106674194336e-01 3.147531151771545410e-01
-3.731316924095153809e-01 -2.468326836824417114e-01 3.102531731128692627e-01
-3.155448734760284424e-01 -3.274663686752319336e-01 2.334032505750656128e-01
-3.396851420402526855e-01 -3.372974991798400879e-01 2.310352176427841187e-01
-3.404815495014190674e-01 -3.377508521080017090e-01 3.365879058837890625e-01
-2.665571570396423340e-01 -2.612145841121673584e-01 3.084491491317749023e-01
-3.789493739604949951e-01 -2.826133668422698975e-01 3.303269147872924805e-01
-2.671311497688293457e-01 -2.608191668987274170e-01 2.945047616958618164e-01
-3.729304969310760498e-01 -2.453899830579757690e-01 3.198906481266021729e-01
-3.868189156055450439e-01 -3.338922858238220215e-01 3.358004391193389893e-01
-3.813418149948120117e-01 -3.020024895668029785e-01 3.335804045200347900e-01
-3.328180015087127686e-01 -2.508248090744018555e-01 3.031199872493743896e-01
-2.663370966911315918e-01 -2.611640393733978271e-01 3.352365493774414062e-01
-3.389602899551391602e-01 -3.377302885055541992e-01 3.051470816135406494e-01
-3.406686782836914062e-01 -3.380981683731079102e-01 3.409434854984283447e-01
-2.718742191791534424e-01 -2.558082342147827148e-01 2.960653901100158691e-01
-3.787543773651123047e-01 -3.279439806938171387e-01 2.640381157398223877e-01
-3.111730813980102539e-01 -3.261715471744537354e-01 2.434844076633453369e-01
-2.677967548370361328e-01 -2.620874047279357910e-01 3.251209259033203125e-01
-3.104410469532012939e-01 -3.250501751899719238e-01 2.456694096326828003e-01
-3.398228585720062256e-01 -3.394603729248046875e-01 3.425754606723785400e-01
-3.461855351924896240e-01 -3.180156052112579346e-01 3.968283832073211670e-01
-3.391201198101043701e-01 -3.393874764442443848e-01 2.632260322570800781e-01
-3.380393385887145996e-01 -2.509337663650512695e-01 2.981867492198944092e-01
-2.807181775569915771e-01 -3.568236529827117920e-01 3.757179975509643555e-01
-2.672213315963745117e-01 -2.626505792140960693e-01 3.161526024341583252e-01
-3.387335240840911865e-01 -3.385950922966003418e-01 3.115407228469848633e-01
-3.465113639831542969e-01 -3.167455494403839111e-01 4.001265764236450195e-01
-3.406556844711303711e-01 -3.386402428150177002e-01 3.675420582294464111e-01
-3.398085534572601318e-01 -3.394561409950256348e-01 3.391139805316925049e-01
-3.030287623405456543e-01 -2.907096743583679199e-01 3.397506773471832275e-01
-3.763270378112792969e-01 -2.684293687343597412e-01 3.264559805393218994e-01
-3.390319645404815674e-01 -3.390460610389709473e-01 3.507746458053588867e-01
-3.450012803077697754e-01 -3.192933201789855957e-01 3.919712901115417480e-01
-3.729582130908966064e-01 -2.465050071477890015e-01 3.210585117340087891e-01
-3.533859848976135254e-01 -2.491267621517181396e-01 2.830031514167785645e-01
-3.404774665832519531e-01 -3.376569747924804688e-01 2.849192917346954346e-01
-2.681818604469299316e-01 -2.607870101928710938e-01 2.904845178127288818e-01
-3.005649745464324951e-01 -3.504358828067779541e-01 3.670777082443237305e-01
-3.823978304862976074e-01 -3.069835007190704346e-01 3.337328135967254639e-01
-3.301150202751159668e-01 -3.251923322677612305e-01 3.100702762603759766e-01
-3.389812707901000977e-01 -3.390792608261108398e-01 3.305387496948242188e-01
-3.125971853733062744e-01 -3.034588694572448730e-01 3.282290399074554443e-01
-3.419907987117767334e-01 -3.297545313835144043e-01 3.771139979362487793e-01
-3.771155178546905518e-01 -3.282595872879028320e-01 2.633298039436340332e-01
-3.386153578758239746e-01 -3.386457860469818115e-01 2.548110187053680420e-01
-3.360887467861175537e-01 -3.589085340499877930e-01 2.860476076602935791e-01
-3.437952995300292969e-01 -3.249800205230712891e-01 3.821301758289337158e-01
-3.564916849136352539e-01 -3.334830403327941895e-01 2.491147518157958984e-01
-3.387750685214996338e-01 -3.385289013385772705e-01 3.635213077068328857e-01
-2.677134871482849121e-01 -2.604462206363677979e-01 3.208332657814025879e-01
-2.669921517372131348e-01 -2.611545324325561523e-01 2.851166129112243652e-01
-2.687426507472991943e-01 -2.622968256473541260e-01 2.815764546394348145e-01
-3.799122571945190430e-01 -2.871271967887878418e-01 3.304271399974822998e-01
-3.324082791805267334e-01 -3.298210501670837402e-01 3.065008223056793213e-01
-2.681238055229187012e-01 -2.609290480613708496e-01 3.400520980358123779e-01
-2.671508491039276123e-01 -2.605567574501037598e-01 3.079210519790649414e-01
-2.947075068950653076e-01 -2.819201052188873291e-01 2.747138440608978271e-01
-3.328677415847778320e-01 -3.693889081478118896e-01 2.953522801399230957e-01
-3.407251238822937012e-01 -3.387151062488555908e-01 3.066309988498687744e-01
-3.383154571056365967e-01 -3.356330394744873047e-01 3.012030422687530518e-01
-3.407524526119232178e-01 -3.387718200683593750e-01 2.824488580226898193e-01
-3.809740841388702393e-01 -3.346448242664337158e-01 3.344027996063232422e-01
-3.957600295543670654e-01 -3.332720100879669189e-01 3.360320031642913818e-01
-3.393988311290740967e-01 -3.374146521091461182e-01 2.937749326229095459e-01
-2.738173604011535645e-01 -3.192893862724304199e-01 3.315941691398620605e-01
-3.388385474681854248e-01 -3.379959464073181152e-01 3.265478014945983887e-01
-3.393299877643585205e-01 -3.393503129482269287e-01 3.124207854270935059e-01
-3.397161662578582764e-01 -3.373253047466278076e-01 2.607495486736297607e-01
-3.671279847621917725e-01 -3.361019194126129150e-01 3.341605365276336670e-01
-3.448810279369354248e-01 -3.186350762844085693e-01 3.944116532802581787e-01
-3.393053114414215088e-01 -3.394570350646972656e-01 2.408703863620758057e-01
-4.020125567913055420e-01 -3.319450318813323975e-01 3.366030454635620117e-01
-3.318522274494171143e-01 -3.741604685783386230e-01 3.005074560642242432e-01
-3.402525484561920166e-01 -3.393218219280242920e-01 3.102195560932159424e-01
-2.684491574764251709e-01 -2.611169517040252686e-01 3.016894161701202393e-01
-3.393579125404357910e-01 -3.374688029289245605e-01 3.225710690021514893e-01
-2.665970921516418457e-01 -2.604497969150543213e-01 3.377066552639007568e-01
-3.407284021377563477e-01 -3.380641341209411621e-01 2.941815853118896484e-01
-3.386421203613281250e-01 -3.384152948856353760e-01 2.427542954683303833e-01
-2.948137223720550537e-01 -3.528968691825866699e-01 3.704598248004913330e-01
-3.441177010536193848e-01 -3.495742082595825195e-01 3.959148824214935303e-01
-2.670221924781799316e-01 -2.611534595489501953e-01 2.839522361755371094e-01
-3.798300921916961670e-01 -2.868409752845764160e-01 3.302752673625946045e-01
-3.101018667221069336e-01 -3.007397055625915527e-01 3.317675292491912842e-01
-3.202137053012847900e-01 -3.138493597507476807e-01 3.193320035934448242e-01
-3.391768932342529297e-01 -3.393034636974334717e-01 2.872972488403320312e-01
-3.408342897891998291e-01 -3.382980227470397949e-01 2.629332840442657471e-01
-3.458978235721588135e-01 -3.382314145565032959e-01 3.281904160976409912e-01
-3.389959037303924561e-01 -3.391568064689636230e-01 3.171632885932922363e-01
-3.379423320293426514e-01 -3.475678861141204834e-01 2.776331603527069092e-01
-3.739934265613555908e-01 -2.515162527561187744e-01 3.199265003204345703e-01
-3.265354037284851074e-01 -3.430089652538299561e-01 3.556661009788513184e-01
-2.685881257057189941e-01 -2.618316709995269775e-01 2.965473830699920654e-01
-2.780519723892211914e-01 -2.614408731460571289e-01 3.617338538169860840e-01
-2.815808355808258057e-01 -2.440379709005355835e-01 3.042006790637969971e-01
-3.730621039867401123e-01 -2.466550171375274658e-01 3.263545930385589600e-01
-3.875961601734161377e-01 -3.329073786735534668e-01 3.351913094520568848e-01
-2.726886868476867676e-01 -3.116281032562255859e-01 3.311166167259216309e-01
-3.427315056324005127e-01 -3.462907373905181885e-01 3.938028812408447266e-01
-2.668750584125518799e-01 -2.621789276599884033e-01 3.182692527770996094e-01
-3.136219680309295654e-01 -3.469116985797882080e-01 3.627505004405975342e-01
-3.327143788337707520e-01 -3.764212727546691895e-01 3.021114468574523926e-01
-3.323422074317932129e-01 -3.283739984035491943e-01 3.064034581184387207e-01
-3.388803005218505859e-01 -3.388915956020355225e-01 3.474531471729278564e-01
-3.875226974487304688e-01 -3.339806795120239258e-01 3.357741534709930420e-01
-3.317887187004089355e-01 -3.745207190513610840e-01 3.008837401866912842e-01
-3.605290055274963379e-01 -3.357804119586944580e-01 3.330520987510681152e-01
-3.389860689640045166e-01 -2.501880526542663574e-01 2.972673773765563965e-01
-3.387676775455474854e-01 -3.386082351207733154e-01 3.656667470932006836e-01
-3.157660961151123047e-01 -3.463778495788574219e-01 3.615278303623199463e-01
-3.391658067703247070e-01 -3.376603722572326660e-01 3.558937311172485352e-01
-3.812593519687652588e-01 -2.973411381244659424e-01 3.319908082485198975e-01
-3.387542068958282471e-01 -3.379940390586853027e-01 2.840740978717803955e-01
-3.401438891887664795e-01 -3.393002152442932129e-01 3.473181724548339844e-01
-2.661775648593902588e-01 -2.611998915672302246e-01 3.356346786022186279e-01
-3.100215196609497070e-01 -2.988529503345489502e-01 3.321044147014617920e-01
-2.736402451992034912e-01 -3.184091150760650635e-01 3.322678208351135254e-01
-3.929037749767303467e-01 -3.235714435577392578e-01 2.723362743854522705e-01
-3.445553481578826904e-01 -3.198831379413604736e-01 3.918806314468383789e-01
-3.328023552894592285e-01 -3.732392489910125732e-01 3.001832664012908936e-01
-3.388045132160186768e-01 -3.380832374095916748e-01 3.004909455776214600e-01
-2.980446219444274902e-01 -3.506728112697601318e-01 3.689141571521759033e-01
-2.726159989833831787e-01 -3.042884171009063721e-01 3.290047049522399902e-01
-3.365010917186737061e-01 -3.391070067882537842e-01 3.497965037822723389e-01
-2.704476118087768555e-01 -2.578655481338500977e-01 2.952935099601745605e-01
-2.699828445911407471e-01 -2.836764454841613770e-01 3.251851797103881836e-01
-2.662717998027801514e-01 -2.611376047134399414e-01 3.378868997097015381e-01
-2.669176757335662842e-01 -2.621070444583892822e-01 3.287225365638732910e-01
-3.433906733989715576e-01 -3.240835666656494141e-01 3.844159543514251709e-01
-3.334940969944000244e-01 -3.305269777774810791e-01 3.048915266990661621e-01
-3.947246372699737549e-01 -3.333698809146881104e-01 3.353981077671051025e-01
-3.387183248996734619e-01 -3.389733433723449707e-01 2.316244840621948242e-01
-3.259441852569580078e-01 -2.515070140361785889e-01 3.087634444236755371e-01
-3.389961421489715576e-01 -3.440643548965454102e-01 2.740158736705780029e-01
-3.383260071277618408e-01 -3.425727486610412598e-01 2.738570868968963623e-01
-2.675275504589080811e-01 -2.621173262596130371e-01 3.322626054286956787e-01
-3.387254476547241211e-01 -3.381358385086059570e-01 3.146141469478607178e-01
-3.387726247310638428e-01 -3.382158279418945312e-01 3.275912702083587646e-01
-3.388231694698333740e-01 -3.387856483459472656e-01 3.411705195903778076e-01
-2.722814083099365234e-01 -3.104667663574218750e-01 3.306582272052764893e-01
-2.663999199867248535e-01 -2.611573338508605957e-01 3.237947523593902588e-01
-3.397437632083892822e-01 -3.398554623126983643e-01 3.878208100795745850e-01
-3.760076761245727539e-01 -2.659845650196075439e-01 3.262062370777130127e-01
-3.112944960594177246e-01 -3.014339506626129150e-01 3.314600884914398193e-01
-3.406224548816680908e-01 -3.382089734077453613e-01 3.719263076782226562e-01
-3.399935662746429443e-01 -3.374933004379272461e-01 3.681553006172180176e-01
-3.927425444126129150e-01 -3.331123590469360352e-01 3.349473178386688232e-01
-2.918317914009094238e-01 -2.803195714950561523e-01 2.681767642498016357e-01
-3.122285902500152588e-01 -3.028298616409301758e-01 3.301879167556762695e-01
-2.941777408123016357e-01 -2.812103927135467529e-01 2.729916870594024658e-01
-3.812933266162872314e-01 -3.030833303928375244e-01 3.336731493473052979e-01
-3.271523416042327881e-01 -2.521180212497711182e-01 3.072529137134552002e-01
-3.390803337097167969e-01 -3.377726376056671143e-01 3.799791634082794189e-01
-3.402962088584899902e-01 -3.369570970535278320e-01 3.693856894969940186e-01
-3.777925670146942139e-01 -2.740604877471923828e-01 3.286620974540710449e-01
-3.730494081974029541e-01 -2.452532351016998291e-01 3.121182024478912354e-01
-3.039772808551788330e-01 -3.227174282073974609e-01 2.549793720245361328e-01
-3.404803872108459473e-01 -3.378431200981140137e-01 3.508198261260986328e-01
-3.396219909191131592e-01 -3.394001722335815430e-01 3.423665463924407959e-01
-3.406661748886108398e-01 -3.386926651000976562e-01 3.413950502872467041e-01
-3.405499160289764404e-01 -3.377060294151306152e-01 2.724568247795104980e-01
-3.386558890342712402e-01 -3.382309973239898682e-01 3.487051129341125488e-01
-2.828115820884704590e-01 -2.429068088531494141e-01 3.047261536121368408e-01
-3.400554060935974121e-01 -3.395406305789947510e-01 2.449973076581954956e-01
-3.325575888156890869e-01 -3.749140799045562744e-01 3.017292022705078125e-01
-3.746884763240814209e-01 -2.541225850582122803e-01 3.219255208969116211e-01
-2.690013051033020020e-01 -2.747887969017028809e-01 3.220982849597930908e-01
-3.797447383403778076e-01 -3.276297450065612793e-01 2.640512287616729736e-01
-2.669606208801269531e-01 -2.607079744338989258e-01 3.049788177013397217e-01
-3.393880128860473633e-01 -3.374916613101959229e-01 3.406587839126586914e-01
-2.921690940856933594e-01 -2.808151245117187500e-01 2.708517313003540039e-01
-3.406090140342712402e-01 -3.391263484954833984e-01 2.368239611387252808e-01
-3.738750815391540527e-01 -2.470283359289169312e-01 3.076333701610565186e-01
-3.105317056179046631e-01 -2.999716401100158691e-01 3.325985074043273926e-01
-3.404492437839508057e-01 -3.391916453838348389e-01 3.086696863174438477e-01
-3.592053949832916260e-01 -3.333556652069091797e-01 2.510327994823455811e-01
-3.402407467365264893e-01 -3.392149806022644043e-01 3.536345362663269043e-01
-3.396241366863250732e-01 -3.373710215091705322e-01 2.748868167400360107e-01
-3.357409536838531494e-01 -3.597982227802276611e-01 2.858656048774719238e-01
-3.522466421127319336e-01 -3.366997539997100830e-01 3.305949270725250244e-01
-3.805068135261535645e-01 -2.925592362880706787e-01 3.310113251209259033e-01
-3.435651063919067383e-01 -3.476874828338623047e-01 3.950063288211822510e-01
-3.728455901145935059e-01 -2.457121014595031738e-01 3.198876380920410156e-01
-3.391757011413574219e-01 -3.376059532165527344e-01 3.466232717037200928e-01
-3.418083786964416504e-01 -3.382877707481384277e-01 2.411489188671112061e-01
-2.706783115863800049e-01 -2.927877008914947510e-01 3.264172077178955078e-01
-3.119574785232543945e-01 -3.011361360549926758e-01 3.303124904632568359e-01
-3.453636169433593750e-01 -3.363022208213806152e-01 2.431993484497070312e-01
-2.926775813102722168e-01 -3.522783219814300537e-01 3.710230290889739990e-01
-3.386480808258056641e-01 -3.383277058601379395e-01 2.739280164241790771e-01
-2.725413739681243896e-01 -3.069975972175598145e-01 3.291614055633544922e-01
-3.426277339458465576e-01 -3.371060192584991455e-01 2.416914254426956177e-01
-3.132517933845520020e-01 -3.272406458854675293e-01 2.380936592817306519e-01
-2.885414659976959229e-01 -2.769576609134674072e-01 2.622079849243164062e-01
-3.793358504772186279e-01 -2.894735038280487061e-01 3.313865959644317627e-01
-3.388441503047943115e-01 -3.386146724224090576e-01 3.974351286888122559e-01
-3.322169780731201172e-01 -3.413147330284118652e-01 3.527697026729583740e-01
-2.713183462619781494e-01 -2.973530590534210205e-01 3.284441530704498291e-01
-2.687163650989532471e-01 -2.622880935668945312e-01 2.828491330146789551e-01
-2.944753170013427734e-01 -2.827325165271759033e-01 2.736181616783142090e-01
-3.334897458553314209e-01 -3.719492554664611816e-01 2.974015176296234131e-01
-3.164596855640411377e-01 -3.286884129047393799e-01 2.328203469514846802e-01
-2.775855064392089844e-01 -2.504090964794158936e-01 3.006064891815185547e-01
-3.313093781471252441e-01 -3.268679380416870117e-01 3.088021278381347656e-01
-3.871853053569793701e-01 -3.330886065959930420e-01 3.356970846652984619e-01
-3.254567980766296387e-01 -3.421984314918518066e-01 3.564517199993133545e-01
-3.076722323894500732e-01 -3.241982758045196533e-01 2.480349540710449219e-01
-3.280971646308898926e-01 -3.239884972572326660e-01 3.103642463684082031e-01
-3.382406830787658691e-01 -2.506588995456695557e-01 2.965140044689178467e-01
-3.683903515338897705e-01 -3.299204707145690918e-01 2.565076351165771484e-01
-2.956807911396026611e-01 -2.824906408786773682e-01 2.762137949466705322e-01
-3.480364680290222168e-01 -2.495404034852981567e-01 2.885319888591766357e-01
-2.682596147060394287e-01 -2.616575360298156738e-01 3.200363218784332275e-01
-3.106161355972290039e-01 -3.247165977954864502e-01 2.450005561113357544e-01
-3.434585630893707275e-01 -3.381148278713226318e-01 3.268042504787445068e-01
-3.391288220882415771e-01 -3.375130295753479004e-01 2.639611661434173584e-01
-3.472589552402496338e-01 -3.358194231986999512e-01 2.439283430576324463e-01
-3.495183289051055908e-01 -2.489749938249588013e-01 2.871498763561248779e-01
-3.397076427936553955e-01 -3.374668359756469727e-01 3.511536717414855957e-01
-3.408241868019104004e-01 -3.383852243423461914e-01 2.648346424102783203e-01
-3.386800885200500488e-01 -3.383945226669311523e-01 3.216886520385742188e-01
-3.127665221691131592e-01 -3.020706176757812500e-01 3.296590149402618408e-01
-2.722224295139312744e-01 -3.028876483440399170e-01 3.284261822700500488e-01
-3.183837532997131348e-01 -3.290768563747406006e-01 2.283350974321365356e-01
-3.061682879924774170e-01 -3.227112889289855957e-01 2.521607577800750732e-01
-3.347589075565338135e-01 -3.321889638900756836e-01 3.050011992454528809e-01
-2.714932858943939209e-01 -3.006841242313385010e-01 3.279574811458587646e-01
-3.953596651554107666e-01 -3.225072920322418213e-01 2.752797901630401611e-01
-3.809803426265716553e-01 -2.956017255783081055e-01 3.316038548946380615e-01
-3.620966672897338867e-01 -3.360800743103027344e-01 3.327492475509643555e-01
-3.444658517837524414e-01 -3.200562000274658203e-01 3.913019895553588867e-01
-3.403953611850738525e-01 -3.393282294273376465e-01 2.319607883691787720e-01
-3.386676013469696045e-01 -3.381955325603485107e-01 2.409641444683074951e-01
-3.092938363552093506e-01 -3.240832686424255371e-01 2.473347038030624390e-01
-3.321182727813720703e-01 -2.516414821147918701e-01 3.025659322738647461e-01
-3.966701328754425049e-01 -3.330943882465362549e-01 3.362844586372375488e-01
-3.378392159938812256e-01 -3.395519554615020752e-01 3.499751687049865723e-01
-2.665643692016601562e-01 -2.606044709682464600e-01 3.263214230537414551e-01
-3.397663235664367676e-01 -3.373431265354156494e-01 2.788150608539581299e-01
-3.773092031478881836e-01 -3.345459103584289551e-01 3.340350091457366943e-01
-3.764777481555938721e-01 -2.667511105537414551e-01 3.256467878818511963e-01
-3.015834391117095947e-01 -3.216653764247894287e-01 2.600755393505096436e-01
-3.388207554817199707e-01 -2.501469552516937256e-01 2.960152924060821533e-01
-3.401622176170349121e-01 -3.392903506755828857e-01 3.463448286056518555e-01
-3.158479928970336914e-01 -3.270190060138702393e-01 2.350191175937652588e-01
-3.067434728145599365e-01 -3.491718769073486328e-01 3.649299740791320801e-01
-3.406973183155059814e-01 -3.388538658618927002e-01 2.796939015388488770e-01
-2.686847746372222900e-01 -2.623162269592285156e-01 2.832828164100646973e-01
-3.407893180847167969e-01 -3.363551199436187744e-01 3.706769049167633057e-01
-3.267944157123565674e-01 -2.513864338397979736e-01 3.079962730407714844e-01
-3.442178070545196533e-01 -3.367224633693695068e-01 2.420641332864761353e-01
-3.047326505184173584e-01 -3.229872882366180420e-01 2.535580992698669434e-01
-3.405523300170898438e-01 -3.390725553035736084e-01 3.339995145797729492e-01
-3.542089164257049561e-01 -3.365071713924407959e-01 3.317188024520874023e-01
-3.310945630073547363e-01 -3.827424943447113037e-01 3.091928660869598389e-01
-3.332544565200805664e-01 -2.506586015224456787e-01 3.015731871128082275e-01
-2.676085531711578369e-01 -2.617776095867156982e-01 3.473975658416748047e-01
-4.020830988883972168e-01 -3.326236009597778320e-01 3.361168205738067627e-01
-3.738882541656494141e-01 -3.288466930389404297e-01 2.599156200885772705e-01
-3.120940029621124268e-01 -3.013846874237060547e-01 3.299815058708190918e-01
-3.395707309246063232e-01 -3.373089730739593506e-01 2.452249825000762939e-01
-3.429332971572875977e-01 -3.287965953350067139e-01 3.781424164772033691e-01
-3.401336669921875000e-01 -3.374808132648468018e-01 3.025299012660980225e-01
-3.397834300994873047e-01 -3.394471108913421631e-01 3.025982379913330078e-01
-3.769462406635284424e-01 -2.734009027481079102e-01 3.279159665107727051e-01
-3.250218033790588379e-01 -3.201085031032562256e-01 3.138609826564788818e-01
-2.961286306381225586e-01 -2.826845049858093262e-01 2.764894068241119385e-01
-3.073608875274658203e-01 -3.245118260383605957e-01 2.503875494003295898e-01
-3.413256406784057617e-01 -3.439389765262603760e-01 3.913168311119079590e-01
-3.292153775691986084e-01 -2.522255480289459229e-01 3.062123358249664307e-01
-3.433250784873962402e-01 -3.383111357688903809e-01 3.268128931522369385e-01
-3.391350805759429932e-01 -3.377698361873626709e-01 3.919505774974822998e-01
-3.796272575855255127e-01 -3.264330029487609863e-01 2.648465931415557861e-01
-3.620480895042419434e-01 -3.366357088088989258e-01 3.333758413791656494e-01
-2.723949849605560303e-01 -3.119957149028778076e-01 3.304884433746337891e-01
-3.391433954238891602e-01 -3.374645709991455078e-01 2.962861061096191406e-01
-3.418924510478973389e-01 -3.456999957561492920e-01 3.921802341938018799e-01
-3.062571585178375244e-01 -3.235359191894531250e-01 2.506898343563079834e-01
-3.389166891574859619e-01 -3.378670513629913330e-01 3.515017330646514893e-01
-3.098660707473754883e-01 -2.985240817070007324e-01 3.325246870517730713e-01
-3.658084571361541748e-01 -3.353435397148132324e-01 3.341518640518188477e-01
-3.728849887847900391e-01 -2.463600486516952515e-01 3.246663212776184082e-01
-3.913397490978240967e-01 -3.234213888645172119e-01 2.728101015090942383e-01
-3.727869093418121338e-01 -3.295631706714630127e-01 2.594001293182373047e-01
-3.722284734249114990e-01 -3.286078274250030518e-01 2.592338919639587402e-01
-3.026292622089385986e-01 -3.215772509574890137e-01 2.603343725204467773e-01
-2.685023844242095947e-01 -2.621753215789794922e-01 2.951658964157104492e-01
-3.362931609153747559e-01 -3.333262205123901367e-01 3.038116991519927979e-01
-3.112354278564453125e-01 -3.259796500205993652e-01 2.413554936647415161e-01
-3.400358855724334717e-01 -3.395411670207977295e-01 2.566663324832916260e-01
-3.677975237369537354e-01 -3.298168182373046875e-01 2.565016448497772217e-01
-3.783236742019653320e-01 -2.761418223381042480e-01 3.289020955562591553e-01
-3.242056667804718018e-01 -3.174657523632049561e-01 3.164951503276824951e-01
-3.407369554042816162e-01 -3.384566605091094971e-01 3.347094655036926270e-01
-3.022497892379760742e-01 -3.213121891021728516e-01 2.610282003879547119e-01
-2.681102752685546875e-01 -2.603107690811157227e-01 2.929112911224365234e-01
-3.746235072612762451e-01 -2.557864487171173096e-01 3.218027949333190918e-01
-2.666500508785247803e-01 -2.606312036514282227e-01 3.218789398670196533e-01
-2.676358222961425781e-01 -2.619163095951080322e-01 3.387064635753631592e-01
-2.680523991584777832e-01 -2.619163990020751953e-01 3.268707692623138428e-01
-3.298891484737396240e-01 -3.408711552619934082e-01 3.538864850997924805e-01
-2.667765319347381592e-01 -2.621093094348907471e-01 3.010894656181335449e-01
-2.714223265647888184e-01 -3.024688661098480225e-01 3.285028338432312012e-01
-3.427716791629791260e-01 -3.370744884014129639e-01 2.417968064546585083e-01
-2.723602652549743652e-01 -3.086384832859039307e-01 3.305381834506988525e-01
-3.415335714817047119e-01 -3.339549303054809570e-01 3.723997473716735840e-01
-2.677757143974304199e-01 -2.604263722896575928e-01 3.255153596401214600e-01
-3.402521908283233643e-01 -3.391273915767669678e-01 3.983607888221740723e-01
-3.303959071636199951e-01 -3.840013146400451660e-01 3.088224232196807861e-01
-3.395334482192993164e-01 -3.394679725170135498e-01 3.192339837551116943e-01
-2.673460543155670166e-01 -2.629162669181823730e-01 3.153190910816192627e-01
-2.723211944103240967e-01 -3.013218641281127930e-01 3.285023570060729980e-01
-3.371083736419677734e-01 -3.487044572830200195e-01 2.780267596244812012e-01
-3.389849960803985596e-01 -3.376507163047790527e-01 2.947606146335601807e-01
-2.898668050765991211e-01 -2.779457867145538330e-01 2.645929753780364990e-01
-3.297804594039916992e-01 -2.516734600067138672e-01 3.062570095062255859e-01
-3.465032875537872314e-01 -3.373171389102935791e-01 3.283906579017639160e-01
-3.232768476009368896e-01 -3.434276282787322998e-01 3.569338619709014893e-01
-3.406203091144561768e-01 -3.422552347183227539e-01 3.896403014659881592e-01
-3.397703170776367188e-01 -3.392943739891052246e-01 3.874576091766357422e-01
-3.480100929737091064e-01 -3.376097381114959717e-01 3.287660479545593262e-01
-3.285487294197082520e-01 -3.235737979412078857e-01 3.102222383022308350e-01
-2.919273376464843750e-01 -2.806140482425689697e-01 2.704155445098876953e-01
-3.388642370700836182e-01 -3.381419777870178223e-01 3.943189978599548340e-01
-3.145818412303924561e-01 -3.267926573753356934e-01 2.378911375999450684e-01
-3.425144255161285400e-01 -3.449118435382843018e-01 3.924548029899597168e-01
-3.307395875453948975e-01 -3.810421526432037354e-01 3.061572909355163574e-01
-2.893242537975311279e-01 -3.545455634593963623e-01 3.721985220909118652e-01
-3.765195608139038086e-01 -3.351499438285827637e-01 3.341698348522186279e-01
-3.392515480518341064e-01 -3.374436199665069580e-01 2.874416708946228027e-01
-3.406462669372558594e-01 -3.387235105037689209e-01 3.805316984653472900e-01
-3.900869786739349365e-01 -3.332849740982055664e-01 3.347574472427368164e-01
-2.719915807247161865e-01 -3.082589209079742432e-01 3.297611176967620850e-01
-3.743660449981689453e-01 -2.489086538553237915e-01 3.193498551845550537e-01
-3.385023176670074463e-01 -2.500182688236236572e-01 2.965101897716522217e-01
-2.684039771556854248e-01 -2.609933018684387207e-01 2.981490790843963623e-01
-3.399246037006378174e-01 -3.394092321395874023e-01 3.131193816661834717e-01
-3.401812613010406494e-01 -3.352843523025512695e-01 3.708308339118957520e-01
-2.948430180549621582e-01 -3.516354560852050781e-01 3.701849579811096191e-01
-3.294955790042877197e-01 -3.858601748943328857e-01 3.113891482353210449e-01
-2.697321176528930664e-01 -2.871147394180297852e-01 3.254546225070953369e-01
-3.391442000865936279e-01 -3.375015556812286377e-01 2.425257861614227295e-01
-3.826232552528381348e-01 -3.259447515010833740e-01 2.657248079776763916e-01
-2.919916212558746338e-01 -2.801996469497680664e-01 2.703431546688079834e-01
-3.124037384986877441e-01 -3.254476189613342285e-01 2.413859963417053223e-01
-3.487874269485473633e-01 -3.363299965858459473e-01 2.450954020023345947e-01
-3.193689286708831787e-01 -3.288284540176391602e-01 2.273549884557723999e-01
-3.405900895595550537e-01 -3.377577960491180420e-01 2.646012902259826660e-01
-2.672303318977355957e-01 -2.613027393817901611e-01 3.357274830341339111e-01
-3.817220628261566162e-01 -3.264618813991546631e-01 2.649709880352020264e-01
-3.399649560451507568e-01 -3.395332694053649902e-01 2.470194250345230103e-01
-3.082545399665832520e-01 -2.963134944438934326e-01 3.352197706699371338e-01
-3.397237360477447510e-01 -3.373261392116546631e-01 2.623772025108337402e-01
-3.405763208866119385e-01 -3.389720320701599121e-01 3.115053474903106689e-01
-2.666019499301910400e-01 -2.608898878097534180e-01 3.124537467956542969e-01
-3.435471355915069580e-01 -3.474873304367065430e-01 3.946486413478851318e-01
-3.427629768848419189e-01 -3.292535245418548584e-01 3.777233362197875977e-01
-2.671209275722503662e-01 -2.622142136096954346e-01 3.226423561573028564e-01
-3.303000628948211670e-01 -3.837246596813201904e-01 3.086687326431274414e-01
-3.463298976421356201e-01 -2.500570714473724365e-01 2.899537384510040283e-01
-3.040072023868560791e-01 -3.497917056083679199e-01 3.657962977886199951e-01
-3.346608877182006836e-01 -2.509973645210266113e-01 3.015943765640258789e-01
-3.408655524253845215e-01 -3.401591181755065918e-01 3.878872990608215332e-01
-3.404789865016937256e-01 -3.379305005073547363e-01 3.959871828556060791e-01
-3.304389417171478271e-01 -3.408152163028717041e-01 3.533077538013458252e-01
-3.388760387897491455e-01 -3.390801250934600830e-01 2.415709942579269409e-01
-3.682574927806854248e-01 -3.296249210834503174e-01 2.569785714149475098e-01
-2.996997535228729248e-01 -2.862578034400939941e-01 2.822137475013732910e-01
-2.980387210845947266e-01 -2.841204404830932617e-01 2.790976464748382568e-01
-3.437617123126983643e-01 -2.496435493230819702e-01 2.912142574787139893e-01
-3.277167379856109619e-01 -3.224864900112152100e-01 3.125297427177429199e-01
-3.406099677085876465e-01 -3.384104073047637939e-01 3.932482302188873291e-01
-3.392418026924133301e-01 -3.391861021518707275e-01 3.741203546524047852e-01
-3.740361034870147705e-01 -2.469683587551116943e-01 3.047541975975036621e-01
-2.680872082710266113e-01 -2.718590795993804932e-01 3.205021023750305176e-01
-2.674855291843414307e-01 -2.606560587882995605e-01 2.934798002243041992e-01
-3.300599753856658936e-01 -3.882796168327331543e-01 3.139635324478149414e-01
-3.112767040729522705e-01 -3.256400227546691895e-01 2.441112995147705078e-01
-2.667268216609954834e-01 -2.620734870433807373e-01 3.071399331092834473e-01
-2.831347584724426270e-01 -2.739428877830505371e-01 2.551363706588745117e-01
-2.979575991630554199e-01 -3.509778380393981934e-01 3.693782091140747070e-01
-3.193423151969909668e-01 -3.294875025749206543e-01 2.284398525953292847e-01
-3.403998315334320068e-01 -3.375175297260284424e-01 2.677408456802368164e-01
-2.996515333652496338e-01 -2.853551506996154785e-01 2.828429043292999268e-01
-3.308610320091247559e-01 -3.852572441101074219e-01 3.111509382724761963e-01
-3.395854830741882324e-01 -3.393456339836120605e-01 3.718836903572082520e-01
-3.179171681404113770e-01 -3.451649248600006104e-01 3.595457971096038818e-01
-3.388627171516418457e-01 -3.388591408729553223e-01 3.335565626621246338e-01
-3.386769592761993408e-01 -3.381146490573883057e-01 2.452335804700851440e-01
-2.767512500286102295e-01 -2.617220580577850342e-01 3.603822290897369385e-01
-3.308721184730529785e-01 -3.261359333992004395e-01 3.081650137901306152e-01
-3.466724157333374023e-01 -3.368314802646636963e-01 2.441420257091522217e-01
-3.404412567615509033e-01 -3.392346203327178955e-01 2.544080615043640137e-01
-3.357676267623901367e-01 -2.504765689373016357e-01 2.989736795425415039e-01
-3.459593951702117920e-01 -3.173262476921081543e-01 3.993375897407531738e-01
-3.400815725326538086e-01 -3.393338620662689209e-01 3.401246070861816406e-01
-3.397197723388671875e-01 -3.375349640846252441e-01 3.995791971683502197e-01
-3.438733518123626709e-01 -3.220860660076141357e-01 3.873553574085235596e-01
-2.679093182086944580e-01 -2.620791792869567871e-01 3.149736523628234863e-01
-3.747571110725402832e-01 -2.573149800300598145e-01 3.226536810398101807e-01
-3.388456106185913086e-01 -3.388214111328125000e-01 3.489061892032623291e-01
-3.403515815734863281e-01 -3.375724554061889648e-01 2.789956629276275635e-01
-3.544205129146575928e-01 -3.338132500648498535e-01 2.480898052453994751e-01
-3.429123759269714355e-01 -3.274020850658416748e-01 3.802310228347778320e-01
-2.671359181404113770e-01 -2.608277797698974609e-01 2.939538359642028809e-01
-3.393406569957733154e-01 -3.375171422958374023e-01 3.424409925937652588e-01
-3.394278883934020996e-01 -3.393421471118927002e-01 3.298581838607788086e-01
-3.304606080055236816e-01 -3.269515037536621094e-01 3.078967630863189697e-01
-3.402900695800781250e-01 -3.393546342849731445e-01 2.468269318342208862e-01
-3.391903042793273926e-01 -3.377190232276916504e-01 3.978506624698638916e-01
-2.682406306266784668e-01 -2.673856616020202637e-01 3.187791705131530762e-01
-3.779422640800476074e-01 -2.782088518142700195e-01 3.295295834541320801e-01
-2.726661562919616699e-01 -3.109020292758941650e-01 3.310020565986633301e-01
-3.295244574546813965e-01 -3.861234486103057861e-01 3.123283386230468750e-01
-3.386222720146179199e-01 -3.385863006114959717e-01 2.506921291351318359e-01
-2.672432959079742432e-01 -2.625984847545623779e-01 2.900398075580596924e-01
-3.813858628273010254e-01 -3.340914547443389893e-01 3.342873454093933105e-01
-3.152309060096740723e-01 -3.271580338478088379e-01 2.342356145381927490e-01
-3.407640457153320312e-01 -3.383669853210449219e-01 3.007311820983886719e-01
-2.706792056560516357e-01 -2.898727059364318848e-01 3.258225619792938232e-01
-3.395728766918182373e-01 -3.379845321178436279e-01 3.006262183189392090e-01
-2.668555378913879395e-01 -2.604655623435974121e-01 3.249737322330474854e-01
-2.672221362590789795e-01 -2.624208331108093262e-01 3.053560853004455566e-01
-3.829831480979919434e-01 -3.267208039760589600e-01 2.668475210666656494e-01
-3.306491076946258545e-01 -3.815352320671081543e-01 3.066262006759643555e-01
-3.843390345573425293e-01 -3.254193663597106934e-01 2.682539820671081543e-01
-2.674295008182525635e-01 -2.601944506168365479e-01 3.448595702648162842e-01
-3.928177654743194580e-01 -3.226981461048126221e-01 2.727791965007781982e-01
-3.755047321319580078e-01 -2.602718472480773926e-01 3.244850933551788330e-01
-3.747133314609527588e-01 -2.496153265237808228e-01 3.189709186553955078e-01
-3.407355248928070068e-01 -3.424101471900939941e-01 3.899461925029754639e-01
-3.391339778900146484e-01 -3.376866579055786133e-01 3.647038340568542480e-01
-3.331566751003265381e-01 -2.509439289569854736e-01 3.029052913188934326e-01
-3.319609761238098145e-01 -3.764363527297973633e-01 3.033199906349182129e-01
-3.387337625026702881e-01 -3.385961353778839111e-01 3.034252524375915527e-01
-3.080381751060485840e-01 -3.238269388675689697e-01 2.478900700807571411e-01
-3.269876837730407715e-01 -2.524628639221191406e-01 3.084704577922821045e-01
-2.726732790470123291e-01 -3.067363202571868896e-01 3.301357924938201904e-01
-3.402146399021148682e-01 -3.392366766929626465e-01 3.515429794788360596e-01
-2.790030241012573242e-01 -2.471210360527038574e-01 3.021745681762695312e-01
-3.390208780765533447e-01 -3.375975191593170166e-01 2.886944413185119629e-01
-3.336278498172760010e-01 -3.708513081073760986e-01 2.976236045360565186e-01
-3.154975175857543945e-01 -3.070835769176483154e-01 3.262965381145477295e-01
-3.106682002544403076e-01 -3.001805543899536133e-01 3.309029936790466309e-01
-3.400728702545166016e-01 -3.375248908996582031e-01 3.776938319206237793e-01
-2.675157487392425537e-01 -2.604127526283264160e-01 3.179460763931274414e-01
-2.842980623245239258e-01 -2.417179048061370850e-01 3.067234456539154053e-01
-3.067263364791870117e-01 -2.942247390747070312e-01 3.369314968585968018e-01
-3.400907516479492188e-01 -3.394112288951873779e-01 2.858011722564697266e-01
-2.719423770904541016e-01 -3.068419098854064941e-01 3.292411863803863525e-01
-3.388917148113250732e-01 -3.388767540454864502e-01 3.677384853363037109e-01
-3.397732377052307129e-01 -3.395371139049530029e-01 2.362188249826431274e-01
-3.406116068363189697e-01 -3.383717536926269531e-01 3.953663408756256104e-01
-2.678140401840209961e-01 -2.619964778423309326e-01 2.925644516944885254e-01
-2.681721746921539307e-01 -2.623095214366912842e-01 3.028395771980285645e-01
-3.049792647361755371e-01 -2.934185266494750977e-01 3.387981355190277100e-01
-3.390371501445770264e-01 -3.375732600688934326e-01 2.903319597244262695e-01
-3.406625986099243164e-01 -3.385602533817291260e-01 3.730186820030212402e-01
-2.681160569190979004e-01 -2.608113586902618408e-01 3.306561708450317383e-01
-3.257658779621124268e-01 -3.430351912975311279e-01 3.569287955760955811e-01
-3.402032256126403809e-01 -3.391723632812500000e-01 3.980545103549957275e-01
-2.741662859916687012e-01 -3.187651336193084717e-01 3.321903049945831299e-01
-2.681768834590911865e-01 -2.628286182880401611e-01 2.795694172382354736e-01
-3.728868067264556885e-01 -2.463796287775039673e-01 3.215868175029754639e-01
-3.406340777873992920e-01 -3.380283713340759277e-01 3.539843261241912842e-01
-2.915333509445190430e-01 -3.534738421440124512e-01 3.709238171577453613e-01
-3.376011848449707031e-01 -3.345880508422851562e-01 3.022247850894927979e-01
-3.389953374862670898e-01 -3.377033472061157227e-01 3.283842206001281738e-01
-3.391448259353637695e-01 -3.375256657600402832e-01 3.217629790306091309e-01
-3.756503760814666748e-01 -3.349540829658508301e-01 3.340002000331878662e-01
-3.406274616718292236e-01 -3.378544747829437256e-01 3.207343816757202148e-01
-3.730742037296295166e-01 -2.468291372060775757e-01 3.054509758949279785e-01
-3.390877544879913330e-01 -3.391133248805999756e-01 3.489168584346771240e-01
-3.418329954147338867e-01 -3.327155709266662598e-01 3.733622729778289795e-01
-2.681308686733245850e-01 -2.628929913043975830e-01 3.159300386905670166e-01
-3.397263288497924805e-01 -3.375001847743988037e-01 3.701466619968414307e-01
-3.408721089363098145e-01 -3.403186202049255371e-01 3.885796666145324707e-01
-2.736158668994903564e-01 -3.141626715660095215e-01 3.307240307331085205e-01
-3.388108313083648682e-01 -3.388846814632415771e-01 3.245738446712493896e-01
-2.955140471458435059e-01 -2.836274206638336182e-01 2.759503126144409180e-01
-2.690479755401611328e-01 -2.794367074966430664e-01 3.228370845317840576e-01
-2.939886152744293213e-01 -3.521217703819274902e-01 3.699370920658111572e-01
-3.404039740562438965e-01 -3.375234007835388184e-01 2.485678941011428833e-01
-2.687933146953582764e-01 -2.607094347476959229e-01 2.935053408145904541e-01
-2.673790752887725830e-01 -2.625662088394165039e-01 2.947223484516143799e-01
-3.549486398696899414e-01 -2.487008124589920044e-01 2.813587486743927002e-01
-3.474993705749511719e-01 -3.367362916469573975e-01 2.442298680543899536e-01
-3.402250707149505615e-01 -3.374874293804168701e-01 2.758313417434692383e-01
-3.784993290901184082e-01 -2.790088653564453125e-01 3.296680450439453125e-01
-3.408398032188415527e-01 -3.387668132781982422e-01 2.340510934591293335e-01
-3.738330006599426270e-01 -3.283890187740325928e-01 2.600394487380981445e-01
-3.391610980033874512e-01 -3.394398987293243408e-01 2.426076829433441162e-01
-2.668604254722595215e-01 -2.606818675994873047e-01 3.093839585781097412e-01
-3.389192223548889160e-01 -3.391341269016265869e-01 2.560095787048339844e-01
-3.866168260574340820e-01 -3.245339393615722656e-01 2.685368657112121582e-01
-3.088928163051605225e-01 -2.990683913230895996e-01 3.327488601207733154e-01
-3.403532505035400391e-01 -3.376898169517517090e-01 3.509759604930877686e-01
-3.578302562236785889e-01 -3.337318301200866699e-01 2.501461207866668701e-01
-2.674053609371185303e-01 -2.625888586044311523e-01 2.932199537754058838e-01
-2.664513289928436279e-01 -2.616497576236724854e-01 3.267673552036285400e-01
-3.398597836494445801e-01 -3.395397663116455078e-01 2.326151281595230103e-01
-3.483679294586181641e-01 -2.496566921472549438e-01 2.871496379375457764e-01
-3.743681609630584717e-01 -2.468058913946151733e-01 3.117230832576751709e-01
-3.975213170051574707e-01 -3.322636783123016357e-01 3.364232778549194336e-01
-2.874756157398223877e-01 -2.761558294296264648e-01 2.603076398372650146e-01
-2.829923033714294434e-01 -2.731133699417114258e-01 2.544096708297729492e-01
-3.147816061973571777e-01 -3.275432884693145752e-01 2.370787411928176880e-01
-3.377073705196380615e-01 -3.471158444881439209e-01 2.772619128227233887e-01
-3.396589457988739014e-01 -3.373884856700897217e-01 3.250367045402526855e-01
-3.356882333755493164e-01 -3.322084844112396240e-01 3.037176430225372314e-01
-2.960457503795623779e-01 -2.840491533279418945e-01 2.769888639450073242e-01
-3.033241033554077148e-01 -2.913725972175598145e-01 3.398936092853546143e-01
-3.945068717002868652e-01 -3.231689035892486572e-01 2.747416496276855469e-01
-3.401146829128265381e-01 -3.394063711166381836e-01 2.941646277904510498e-01
-3.317538201808929443e-01 -3.750407695770263672e-01 3.007063269615173340e-01
-3.406870365142822266e-01 -3.381324112415313721e-01 3.307498693466186523e-01
-3.075246810913085938e-01 -2.965108156204223633e-01 3.359633684158325195e-01
-3.360385596752166748e-01 -3.392811417579650879e-01 3.512261211872100830e-01
-3.389940559864044189e-01 -3.378812372684478760e-01 3.732060194015502930e-01
-3.785224556922912598e-01 -2.775005400180816650e-01 3.286871612071990967e-01
-3.347488641738891602e-01 -3.659095466136932373e-01 2.925656735897064209e-01
-3.404284417629241943e-01 -3.375271856784820557e-01 2.288137078285217285e-01
-3.767821490764617920e-01 -2.717164754867553711e-01 3.278163075447082520e-01
-2.679027318954467773e-01 -2.605754137039184570e-01 3.078722655773162842e-01
-2.683767378330230713e-01 -2.609758675098419189e-01 3.015455007553100586e-01
-3.404126167297363281e-01 -3.377949297428131104e-01 3.783916532993316650e-01
-3.331735730171203613e-01 -3.694244027137756348e-01 2.948846817016601562e-01
-3.386511206626892090e-01 -3.383371829986572266e-01 2.524789273738861084e-01
-3.386673331260681152e-01 -3.381971120834350586e-01 2.629044353961944580e-01
-3.399925827980041504e-01 -3.393819034099578857e-01 3.322139680385589600e-01
-3.732792437076568604e-01 -2.451470196247100830e-01 3.149389326572418213e-01
-3.254202902317047119e-01 -2.525328099727630615e-01 3.092911839485168457e-01
-3.295917212963104248e-01 -3.409899771213531494e-01 3.544532358646392822e-01
-3.123642206192016602e-01 -3.268595635890960693e-01 2.398220747709274292e-01
-2.943117618560791016e-01 -3.522490859031677246e-01 3.709830343723297119e-01
-2.700505256652832031e-01 -2.901013791561126709e-01 3.265031278133392334e-01
-3.387501537799835205e-01 -3.388488590717315674e-01 2.944478392601013184e-01
-3.799547255039215088e-01 -2.898304164409637451e-01 3.304833173751831055e-01
-3.156296610832214355e-01 -3.072845637798309326e-01 3.246415257453918457e-01
-3.387542665004730225e-01 -3.382769823074340820e-01 3.320643305778503418e-01
-3.087945282459259033e-01 -2.975278496742248535e-01 3.333239555358886719e-01
-3.407264947891235352e-01 -3.384915292263031006e-01 3.384407460689544678e-01
-2.975950539112091064e-01 -3.507839739322662354e-01 3.690301179885864258e-01
-3.870609998703002930e-01 -3.256163001060485840e-01 2.689921557903289795e-01
-2.937855720520019531e-01 -3.529309034347534180e-01 3.712135851383209229e-01
-3.803465962409973145e-01 -2.915934622287750244e-01 3.317409455776214600e-01
-2.687715590000152588e-01 -2.749891281127929688e-01 3.210901319980621338e-01
-3.099615275859832764e-01 -2.986085116863250732e-01 3.332607448101043701e-01
-3.408533334732055664e-01 -3.382977843284606934e-01 2.367271780967712402e-01
-3.363464176654815674e-01 -3.565491735935211182e-01 2.830913662910461426e-01
-2.720454335212707520e-01 -2.571988105773925781e-01 2.956033647060394287e-01
-3.333661556243896484e-01 -3.729586005210876465e-01 2.986223697662353516e-01
-2.663675844669342041e-01 -2.607811093330383301e-01 3.342068493366241455e-01
-3.659600019454956055e-01 -3.361933827400207520e-01 3.340843021869659424e-01
-3.406104147434234619e-01 -3.391005694866180420e-01 2.547136545181274414e-01
-3.818711936473846436e-01 -3.051705062389373779e-01 3.329342603683471680e-01
-3.441210985183715820e-01 -3.246599137783050537e-01 3.838500678539276123e-01
-3.332006037235260010e-01 -3.288780450820922852e-01 3.063715696334838867e-01
-3.329471051692962646e-01 -3.737291693687438965e-01 3.004740476608276367e-01
-2.987790107727050781e-01 -2.848828732967376709e-01 2.818188965320587158e-01
-3.388774693012237549e-01 -3.390809893608093262e-01 2.698065638542175293e-01
-3.035936951637268066e-01 -2.905302047729492188e-01 3.408029675483703613e-01
-3.405252099037170410e-01 -3.378320634365081787e-01 3.282579183578491211e-01
-3.093680441379547119e-01 -3.248744606971740723e-01 2.475901991128921509e-01
-3.387359082698822021e-01 -3.378192484378814697e-01 2.329293936491012573e-01
-2.920105159282684326e-01 -3.524792492389678955e-01 3.712390065193176270e-01
-3.389285802841186523e-01 -3.391455709934234619e-01 2.670619785785675049e-01
-3.386522233486175537e-01 -3.383272290229797363e-01 2.655699849128723145e-01
-3.596177995204925537e-01 -3.322478830814361572e-01 2.517536580562591553e-01
-2.687999904155731201e-01 -2.614616453647613525e-01 2.817424237728118896e-01
-3.793857097625732422e-01 -2.914572358131408691e-01 3.313311040401458740e-01
-3.057031035423278809e-01 -2.941968142986297607e-01 3.380817472934722900e-01
-2.962865233421325684e-01 -2.836697399616241455e-01 2.781155109405517578e-01
-2.667919695377349854e-01 -2.620085179805755615e-01 3.352324366569519043e-01
-3.730879724025726318e-01 -2.468571215867996216e-01 3.001002073287963867e-01
-3.387289941310882568e-01 -3.378297090530395508e-01 2.673975527286529541e-01
-2.679256498813629150e-01 -2.625604867935180664e-01 2.963897287845611572e-01
-2.825968265533447266e-01 -2.736542224884033203e-01 2.531801164150238037e-01
-3.389539420604705811e-01 -3.376972377300262451e-01 2.805144190788269043e-01
-3.369714915752410889e-01 -3.342688083648681641e-01 3.019476234912872314e-01
-3.402450680732727051e-01 -3.375453054904937744e-01 3.009744882583618164e-01
-3.393830060958862305e-01 -3.374801278114318848e-01 3.639881312847137451e-01
-2.672931253910064697e-01 -2.623795866966247559e-01 3.131040036678314209e-01
-3.293219804763793945e-01 -3.258164823055267334e-01 3.093535602092742920e-01
-3.387660384178161621e-01 -3.387170135974884033e-01 3.084358274936676025e-01
-3.407390117645263672e-01 -3.382726609706878662e-01 3.253717720508575439e-01
-2.669797241687774658e-01 -2.622483670711517334e-01 3.153921663761138916e-01
-3.386760652065277100e-01 -3.383795320987701416e-01 3.149828910827636719e-01
-3.430988192558288574e-01 -3.490122556686401367e-01 3.958619534969329834e-01
-3.398847877979278564e-01 -3.394198715686798096e-01 3.118175566196441650e-01
-3.401437103748321533e-01 -3.374865055084228516e-01 3.083737194538116455e-01
-2.682932317256927490e-01 -2.608901262283325195e-01 3.092221319675445557e-01
-3.053362965583801270e-01 -3.229384124279022217e-01 2.552601993083953857e-01
-3.109582960605621338e-01 -3.255145549774169922e-01 2.447098493576049805e-01
-3.406418263912200928e-01 -3.389363884925842285e-01 2.776525616645812988e-01
-3.406745195388793945e-01 -3.388874530792236328e-01 2.905238568782806396e-01
-3.501718342304229736e-01 -2.490260452032089233e-01 2.866533696651458740e-01
-3.665874600410461426e-01 -3.312636613845825195e-01 2.557094097137451172e-01
-3.401298522949218750e-01 -3.393079638481140137e-01 3.327846229076385498e-01
-3.406049013137817383e-01 -3.385300636291503906e-01 3.898038268089294434e-01
-2.902397215366363525e-01 -2.796432673931121826e-01 2.664988338947296143e-01
-3.417114019393920898e-01 -3.385058641433715820e-01 3.269593417644500732e-01
-3.783279955387115479e-01 -3.346523046493530273e-01 3.341431915760040283e-01
-3.390371501445770264e-01 -3.391829133033752441e-01 3.346668779850006104e-01
-2.686375081539154053e-01 -2.681620717048645020e-01 3.188622295856475830e-01
-3.162654340267181396e-01 -3.081486523151397705e-01 3.238729536533355713e-01
-2.780474126338958740e-01 -2.484390139579772949e-01 3.010569512844085693e-01
-3.330745697021484375e-01 -2.513100504875183105e-01 3.014974594116210938e-01
-2.716843783855438232e-01 -3.013004958629608154e-01 3.280285000801086426e-01
-3.879550397396087646e-01 -3.332194089889526367e-01 3.358626365661621094e-01
-3.016274273395538330e-01 -3.215858340263366699e-01 2.593864798545837402e-01
-3.388015925884246826e-01 -3.382446169853210449e-01 3.495807051658630371e-01
-3.027962148189544678e-01 -3.218029141426086426e-01 2.600283622741699219e-01
-3.393553793430328369e-01 -3.392763137817382812e-01 3.799073100090026855e-01
-3.405201137065887451e-01 -3.376700878143310547e-01 2.450274378061294556e-01
