-1.025038585066795349e-01 -3.080835938453674316e-01 1.867547035217285156e-01
-2.141470611095428467e-01 -2.110964804887771606e-01 1.966142803430557251e-01
-1.966547369956970215e-01 -2.288680374622344971e-01 -8.453636430203914642e-03
-2.114341557025909424e-01 -2.114800810813903809e-01 2.114081978797912598e-01
-1.406894922256469727e-01 -2.623007893562316895e-01 1.647234112024307251e-01
-6.461606174707412720e-02 -2.559449970722198486e-01 2.861110270023345947e-01
-1.752716451883316040e-01 -2.451218664646148682e-01 4.999248310923576355e-02
-9.275610744953155518e-02 -3.163137137889862061e-01 2.224979996681213379e-01
-9.693835675716400146e-02 -2.802908718585968018e-01 1.290550082921981812e-01
-1.092225462198257446e-01 -2.999481260776519775e-01 1.601034551858901978e-01
-1.166286319494247437e-01 -2.950231134891510010e-01 1.479459702968597412e-01
-6.678801029920578003e-02 -3.564215004444122314e-01 2.046501189470291138e-01
-2.122392356395721436e-01 -2.122948318719863892e-01 1.641615927219390869e-01
-1.805644929409027100e-01 -2.328871190547943115e-01 1.792339235544204712e-01
-1.590057015419006348e-01 -3.174658715724945068e-01 9.519224613904953003e-02
-5.500885471701622009e-02 -3.699784874916076660e-01 2.107623666524887085e-01
-2.136135846376419067e-01 -2.119552195072174072e-01 1.612514704465866089e-01
-9.592120349407196045e-02 -3.113202750682830811e-01 2.089779675006866455e-01
-2.130945473909378052e-01 -2.125431448221206665e-01 3.969487920403480530e-02
-5.621695518493652344e-02 -3.473492860794067383e-01 2.776573300361633301e-01
-2.135605216026306152e-01 -2.098969519138336182e-01 1.928471773862838745e-02
-1.757022440433502197e-01 -2.390130013227462769e-01 5.162229016423225403e-02
-8.483385294675827026e-02 -2.783619165420532227e-01 1.355807930231094360e-01
-6.373127549886703491e-02 -2.550011873245239258e-01 2.894201576709747314e-01
-6.416428834199905396e-02 -3.380483984947204590e-01 2.692557275295257568e-01
-1.692627668380737305e-01 -2.488648444414138794e-01 5.504230782389640808e-02
-1.578238904476165771e-01 -2.580700814723968506e-01 7.258531451225280762e-02
-1.157408207654953003e-01 -2.956189811229705811e-01 1.502171754837036133e-01
-1.265156865119934082e-01 -2.873290777206420898e-01 1.224495247006416321e-01
-5.340430140495300293e-02 -2.732068598270416260e-01 1.590629667043685913e-01
-9.086447954177856445e-02 -3.146775960922241211e-01 2.211555242538452148e-01
-2.255705296993255615e-01 -2.147606611251831055e-01 1.328856498003005981e-01
-6.710598617792129517e-02 -2.749487757682800293e-01 1.478169113397598267e-01
-1.398606151342391968e-01 -2.987142503261566162e-01 2.006217688322067261e-01
-7.529769837856292725e-02 -2.768958210945129395e-01 1.424704492092132568e-01
-1.261406987905502319e-01 -2.877516150474548340e-01 1.243121549487113953e-01
-1.602541655302047729e-01 -2.088315486907958984e-01 1.334295421838760376e-01
-1.556983143091201782e-01 -2.510883212089538574e-01 1.721876710653305054e-01
-6.516921520233154297e-02 -3.378727436065673828e-01 2.679875791072845459e-01
-2.138364017009735107e-01 -2.094609886407852173e-01 7.349551469087600708e-02
-2.136735469102859497e-01 -2.118333131074905396e-01 2.000728696584701538e-01
-1.637028157711029053e-01 -3.419018089771270752e-01 1.003685370087623596e-01
-1.165479570627212524e-01 -2.960717380046844482e-01 1.462821960449218750e-01
-2.132606953382492065e-01 -1.791085153818130493e-01 8.794014155864715576e-02
-1.268462091684341431e-01 -2.853513658046722412e-01 1.184329092502593994e-01
-1.996584534645080566e-01 -2.213156223297119141e-01 8.521137642674148083e-04
-1.074815765023231506e-01 -3.002950251102447510e-01 1.671861708164215088e-01
-2.239531725645065308e-01 -2.156053334474563599e-01 1.320409625768661499e-01
-2.113026678562164307e-01 -2.104743719100952148e-01 9.966810047626495361e-02
-2.107349783182144165e-01 -2.111825495958328247e-01 6.536717992275953293e-03
-6.264995783567428589e-02 -2.518970966339111328e-01 2.920471429824829102e-01
-1.748479604721069336e-01 -2.428271323442459106e-01 4.839581623673439026e-02
-1.073070690035820007e-01 -3.009798526763916016e-01 1.653254926204681396e-01
-9.296115487813949585e-02 -2.796512544155120850e-01 1.309640854597091675e-01
-1.049898788332939148e-01 -3.052590787410736084e-01 1.754222065210342407e-01
-1.634604334831237793e-01 -2.141389548778533936e-01 1.183683425188064575e-01
-1.220365837216377258e-01 -2.980749011039733887e-01 1.663684993982315063e-01
-1.263455450534820557e-01 -2.847002744674682617e-01 1.232755631208419800e-01
-4.623012244701385498e-02 -2.712515890598297119e-01 1.677643954753875732e-01
-6.401821225881576538e-02 -3.407477140426635742e-01 2.726110517978668213e-01
-9.607867151498794556e-02 -3.140599131584167480e-01 1.896446496248245239e-01
-9.560199081897735596e-02 -3.502101898193359375e-01 2.672727406024932861e-01
-2.147778570652008057e-01 -1.476938426494598389e-01 1.019332259893417358e-01
-2.126987576484680176e-01 -2.092000395059585571e-01 1.516343280673027039e-02
-1.961759775876998901e-01 -2.289396822452545166e-01 -1.063545793294906616e-02
-1.797703057527542114e-01 -2.415248602628707886e-01 4.578701779246330261e-02
-9.532068669795989990e-02 -3.117446601390838623e-01 2.108177989721298218e-01
-2.126307487487792969e-01 -2.095740139484405518e-01 2.204129286110401154e-02
-2.009107619524002075e-01 -2.203981578350067139e-01 2.681197598576545715e-02
-1.652136296033859253e-01 -2.201508581638336182e-01 9.872284531593322754e-02
-1.682575196027755737e-01 -2.233421206474304199e-01 9.150419384241104126e-02
-8.978985995054244995e-02 -2.774830162525177002e-01 1.328219622373580933e-01
-5.345370247960090637e-02 -2.722559273242950439e-01 1.619526296854019165e-01
-6.165008246898651123e-02 -3.609924912452697754e-01 2.071892321109771729e-01
-1.587498188018798828e-01 -2.096986025571823120e-01 1.320164352655410767e-01
-1.309925615787506104e-01 -2.993614077568054199e-01 1.827792674303054810e-01
-2.139385789632797241e-01 -2.100901454687118530e-01 9.878375381231307983e-02
-1.650723218917846680e-01 -2.181627601385116577e-01 1.040674820542335510e-01
-8.174771070480346680e-02 -3.326379954814910889e-01 1.957642138004302979e-01
-1.516429334878921509e-01 -2.519076168537139893e-01 1.698937118053436279e-01
-8.721939474344253540e-02 -3.068253993988037109e-01 2.276202887296676636e-01
-1.045970693230628967e-01 -3.062060475349426270e-01 1.788287013769149780e-01
-1.034709438681602478e-01 -3.071855902671813965e-01 1.825003027915954590e-01
-2.138013690710067749e-01 -2.099890559911727905e-01 2.318440824747085571e-01
-1.075517907738685608e-01 -3.009962439537048340e-01 1.700958013534545898e-01
-1.647735983133316040e-01 -2.444381117820739746e-01 1.758747100830078125e-01
-2.142244577407836914e-01 -1.990942507982254028e-01 7.857526093721389771e-02
-2.364425361156463623e-01 -2.184974104166030884e-01 1.405176818370819092e-01
-1.667928546667098999e-01 -2.437381297349929810e-01 1.760768145322799683e-01
-1.126529127359390259e-01 -2.984839975833892822e-01 1.527896225452423096e-01
-8.253106474876403809e-02 -3.218611478805541992e-01 2.427382171154022217e-01
-9.442598372697830200e-02 -3.121858239173889160e-01 2.129017114639282227e-01
-1.517051607370376587e-01 -2.838518619537353516e-01 8.613277971744537354e-02
-2.142073661088943481e-01 -1.669970154762268066e-01 9.343724697828292847e-02
-1.911795884370803833e-01 -2.247450500726699829e-01 1.779244244098663330e-01
-1.991786360740661621e-01 -2.215259671211242676e-01 8.732251008041203022e-04
-2.138835191726684570e-01 -2.101674377918243408e-01 2.152230143547058105e-01
-2.130842506885528564e-01 -2.123800814151763916e-01 9.310108423233032227e-02
-1.220928132534027100e-01 -2.875523865222930908e-01 1.294046789407730103e-01
-2.130035609006881714e-01 -2.124328464269638062e-01 8.188466727733612061e-02
-2.152919173240661621e-01 -1.630931496620178223e-01 9.727281332015991211e-02
-1.856120079755783081e-01 -2.365121543407440186e-01 4.076225683093070984e-02
-1.005261614918708801e-01 -3.097547888755798340e-01 1.935312747955322266e-01
-9.880345314741134644e-02 -3.093515336513519287e-01 1.927284300327301025e-01
-2.136456072330474854e-01 -2.082537561655044556e-01 2.148468196392059326e-01
-1.212378442287445068e-01 -2.919463217258453369e-01 1.343057155609130859e-01
-1.142133697867393494e-01 -2.965703308582305908e-01 1.540070772171020508e-01
-1.389952898025512695e-01 -2.629021108150482178e-01 1.644501835107803345e-01
-1.615984886884689331e-01 -2.549212574958801270e-01 6.376706808805465698e-02
-6.676591932773590088e-02 -2.603504955768585205e-01 2.810432612895965576e-01
-2.325968444347381592e-01 -2.185359895229339600e-01 1.360734552145004272e-01
-2.123790383338928223e-01 -2.122594565153121948e-01 1.810827851295471191e-01
-1.341751813888549805e-01 -2.780407965183258057e-01 1.038490384817123413e-01
-1.730768829584121704e-01 -2.320420593023300171e-01 6.929212063550949097e-02
-1.654504388570785522e-01 -3.510952889919281006e-01 1.036933138966560364e-01
-2.131690382957458496e-01 -2.095348238945007324e-01 1.115061715245246887e-01
-2.035857439041137695e-01 -2.170553505420684814e-01 1.762096881866455078e-01
-1.141249015927314758e-01 -2.980188727378845215e-01 1.555460840463638306e-01
-1.841480433940887451e-01 -2.309759110212326050e-01 1.776248067617416382e-01
-1.718123555183410645e-01 -2.292465567588806152e-01 7.386244088411331177e-02
-6.086310371756553650e-02 -3.633897006511688232e-01 2.081146389245986938e-01
-2.115340381860733032e-01 -2.099338173866271973e-01 1.236302629113197327e-01
-1.704108119010925293e-01 -2.295062541961669922e-01 7.717759162187576294e-02
-7.452604174613952637e-02 -2.807523310184478760e-01 2.561910748481750488e-01
-2.144557982683181763e-01 -2.121274024248123169e-01 1.098431739956140518e-02
-1.708703488111495972e-01 -2.474417686462402344e-01 5.710478872060775757e-02
-1.529628783464431763e-01 -2.800390422344207764e-01 8.543734997510910034e-02
-5.493905395269393921e-02 -2.740053832530975342e-01 1.588218957185745239e-01
-1.030026897788047791e-01 -3.047944903373718262e-01 1.781024038791656494e-01
-1.513961702585220337e-01 -2.521363794803619385e-01 1.698892563581466675e-01
-1.461147516965866089e-01 -2.587291896343231201e-01 1.659313291311264038e-01
-2.125371396541595459e-01 -2.092178165912628174e-01 1.315730623900890350e-02
-2.112476080656051636e-01 -2.104199826717376709e-01 1.643842309713363647e-01
-1.660032570362091064e-01 -2.195108830928802490e-01 1.030756831169128418e-01
-2.130648493766784668e-01 -2.125520706176757812e-01 4.004637897014617920e-02
-8.431604504585266113e-02 -3.298250734806060791e-01 2.499340027570724487e-01
-2.141008526086807251e-01 -2.105160653591156006e-01 1.667713969945907593e-01
-2.134825140237808228e-01 -2.098014056682586670e-01 3.902541100978851318e-02
-5.893959105014801025e-02 -2.740483283996582031e-01 1.572844088077545166e-01
-8.222018182277679443e-02 -2.954240441322326660e-01 2.404255867004394531e-01
-7.094545662403106689e-02 -3.322467505931854248e-01 2.634398937225341797e-01
-2.164134085178375244e-01 -1.536231935024261475e-01 1.010669618844985962e-01
-1.374285817146301270e-01 -2.760387957096099854e-01 9.858804196119308472e-02
-1.165058314800262451e-01 -2.960696220397949219e-01 1.467942893505096436e-01
-2.169355005025863647e-01 -2.113776355981826782e-01 1.259604841470718384e-01
-1.573441773653030396e-01 -3.049464225769042969e-01 9.099347144365310669e-02
-1.503470391035079956e-01 -2.657471597194671631e-01 8.131852746009826660e-02
-1.601049154996871948e-01 -3.205430805683135986e-01 9.541491419076919556e-02
-1.036277413368225098e-01 -3.035597205162048340e-01 1.776340901851654053e-01
-8.955439925193786621e-02 -3.160513937473297119e-01 2.282563894987106323e-01
-1.987062096595764160e-01 -2.238753885030746460e-01 -2.324785571545362473e-03
-2.225314527750015259e-01 -1.988916844129562378e-01 2.240670770406723022e-01
-1.458548158407211304e-01 -2.707937955856323242e-01 8.864267915487289429e-02
-2.292769700288772583e-01 -2.159871459007263184e-01 1.353649199008941650e-01
-1.776516586542129517e-01 -2.349644303321838379e-01 1.789461523294448853e-01
-1.096093580126762390e-01 -2.985003292560577393e-01 1.592651456594467163e-01
-2.113069146871566772e-01 -2.105188965797424316e-01 7.400171458721160889e-02
-2.195157557725906372e-01 -2.137394398450851440e-01 1.271463781595230103e-01
-1.005420386791229248e-01 -3.098369538784027100e-01 1.896031498908996582e-01
-1.581796556711196899e-01 -2.098889648914337158e-01 1.356831043958663940e-01
-1.942456662654876709e-01 -2.280197590589523315e-01 3.335107490420341492e-02
-2.136817723512649536e-01 -2.061946690082550049e-01 7.600947469472885132e-02
-2.286988198757171631e-01 -2.161159664392471313e-01 1.351935267448425293e-01
-8.453163504600524902e-02 -3.012934625148773193e-01 2.337791472673416138e-01
-2.092361003160476685e-01 -2.128089964389801025e-01 1.359700039029121399e-02
-1.325052231550216675e-01 -2.975152432918548584e-01 1.849158108234405518e-01
-9.283809363842010498e-02 -3.162903785705566406e-01 2.189167886972427368e-01
-2.053618282079696655e-01 -2.188614010810852051e-01 7.438935805112123489e-03
-1.486317217350006104e-01 -2.984707355499267578e-01 2.188187688589096069e-01
-1.665968745946884155e-01 -2.439641654491424561e-01 1.758182495832443237e-01
-2.118283808231353760e-01 -2.118768095970153809e-01 2.078868448734283447e-01
-2.083157300949096680e-01 -2.133362591266632080e-01 2.035774290561676025e-02
-9.126581996679306030e-02 -2.776592373847961426e-01 1.322856396436691284e-01
-1.545716673135757446e-01 -3.002995252609252930e-01 2.304163426160812378e-01
-1.574275642633438110e-01 -3.126797974109649658e-01 9.383008629083633423e-02
-7.969270646572113037e-02 -2.873214483261108398e-01 2.470119595527648926e-01
-9.908097237348556519e-02 -2.802329957485198975e-01 1.273779124021530151e-01
-2.138292491436004639e-01 -2.099720537662506104e-01 1.503020972013473511e-01
-5.392709374427795410e-02 -3.735246658325195312e-01 2.099616676568984985e-01
-1.702119261026382446e-01 -2.273143082857131958e-01 7.783014327287673950e-02
-2.113145589828491211e-01 -2.104277163743972778e-01 6.166647002100944519e-02
-2.140191197395324707e-01 -2.112886011600494385e-01 2.038588225841522217e-01
-2.113184928894042969e-01 -2.114335745573043823e-01 1.071426123380661011e-01
-1.151789128780364990e-01 -2.987602353096008301e-01 1.589430123567581177e-01
-1.606982499361038208e-01 -2.574859559535980225e-01 6.671931594610214233e-02
-2.112284004688262939e-01 -2.105819582939147949e-01 1.789972931146621704e-01
-2.125900387763977051e-01 -2.122412919998168945e-01 1.968573629856109619e-01
-1.516204029321670532e-01 -2.744100689888000488e-01 8.468208461999893188e-02
-1.630063503980636597e-01 -3.369620740413665771e-01 9.932404756546020508e-02
-1.274682134389877319e-01 -2.857471406459808350e-01 1.228490248322486877e-01
-1.327672451734542847e-01 -2.788360416889190674e-01 1.098318397998809814e-01
-1.644455194473266602e-01 -2.546963989734649658e-01 6.423711776733398438e-02
-5.884671956300735474e-02 -3.455815613269805908e-01 2.769030630588531494e-01
-1.731753945350646973e-01 -2.436785399913787842e-01 5.257520079612731934e-02
-1.222150474786758423e-01 -2.877728044986724854e-01 1.276361942291259766e-01
-9.168917685747146606e-02 -3.142958283424377441e-01 2.172975093126296997e-01
-2.129133045673370361e-01 -1.943892389535903931e-01 8.017446100711822510e-02
-1.738346368074417114e-01 -2.331069260835647583e-01 6.619586795568466187e-02
-1.511621922254562378e-01 -2.695950269699096680e-01 8.329894393682479858e-02
-2.120898514986038208e-01 -2.096539884805679321e-01 5.911838635802268982e-02
-6.263227760791778564e-02 -2.560745477676391602e-01 2.864570915699005127e-01
-2.114542722702026367e-01 -2.101276218891143799e-01 7.075893133878707886e-02
-1.812663227319717407e-01 -2.375904321670532227e-01 4.161006212234497070e-02
-2.128839343786239624e-01 -2.123179882764816284e-01 1.251691579818725586e-01
-2.141584306955337524e-01 -2.113272398710250854e-01 7.508747279644012451e-02
-1.523598134517669678e-01 -2.877373695373535156e-01 8.627798408269882202e-02
-4.080134630203247070e-02 -3.335763812065124512e-01 2.671795785427093506e-01
-1.445939540863037109e-01 -2.580629885196685791e-01 1.673783659934997559e-01
-1.666146516799926758e-01 -2.203173041343688965e-01 9.795495867729187012e-02
-1.924765706062316895e-01 -2.305960804224014282e-01 3.343363478779792786e-02
-9.349122643470764160e-02 -3.157534599304199219e-01 2.170149534940719604e-01
-7.365632802248001099e-02 -2.780167758464813232e-01 2.603983283042907715e-01
-1.284487098455429077e-01 -2.978522777557373047e-01 1.797093302011489868e-01
-2.354002892971038818e-01 -2.196948975324630737e-01 1.399080157279968262e-01
-9.153662621974945068e-02 -3.149147629737854004e-01 2.213317304849624634e-01
-5.170378461480140686e-02 -2.715953290462493896e-01 1.630205810070037842e-01
-2.045141458511352539e-01 -2.170217633247375488e-01 8.189661428332328796e-03
-1.764279752969741821e-01 -2.371173501014709473e-01 1.781982183456420898e-01
-5.607568472623825073e-02 -3.679235577583312988e-01 2.095724642276763916e-01
-2.140003442764282227e-01 -2.113458961248397827e-01 1.797746568918228149e-01
-7.163838297128677368e-02 -3.489795327186584473e-01 2.019718140363693237e-01
-1.209220960736274719e-01 -2.974010109901428223e-01 1.676726192235946655e-01
-1.045142263174057007e-01 -3.063002228736877441e-01 1.794859468936920166e-01
-8.768232911825180054e-02 -3.062159121036529541e-01 2.271289378404617310e-01
-2.133210450410842896e-01 -2.122646272182464600e-01 1.431976705789566040e-01
-5.432403460144996643e-02 -3.492952883243560791e-01 2.795782983303070068e-01
-7.069643586874008179e-02 -3.351557850837707520e-01 2.632095515727996826e-01
-2.113773375749588013e-01 -2.116389572620391846e-01 8.503040671348571777e-02
-1.147264987230300903e-01 -2.977011501789093018e-01 1.562881767749786377e-01
-2.142375111579895020e-01 -2.108865827322006226e-01 1.112630665302276611e-01
-6.194932386279106140e-02 -3.599652647972106934e-01 2.052263468503952026e-01
-1.189030334353446960e-01 -2.749483585357666016e-01 1.536676585674285889e-01
-1.229403614997863770e-01 -2.737457454204559326e-01 1.546312570571899414e-01
-2.127875834703445435e-01 -2.124634832143783569e-01 1.057867631316184998e-01
-1.027077957987785339e-01 -2.808609306812286377e-01 1.273007243871688843e-01
-1.697521358728408813e-01 -2.272702306509017944e-01 7.807876914739608765e-02
-1.753636151552200317e-01 -2.376762032508850098e-01 5.363365262746810913e-02
-6.710459291934967041e-02 -3.382455706596374512e-01 2.675560116767883301e-01
-1.577329933643341064e-01 -2.984634339809417725e-01 2.368186563253402710e-01
-1.170607358217239380e-01 -2.971505820751190186e-01 1.599134951829910278e-01
-2.133102864027023315e-01 -1.882211863994598389e-01 8.533447980880737305e-02
-7.734341174364089966e-02 -3.285683691501617432e-01 2.526826858520507812e-01
-1.492860615253448486e-01 -2.554347217082977295e-01 1.693260967731475830e-01
-1.600805521011352539e-01 -2.120290696620941162e-01 1.245079860091209412e-01
-1.150578707456588745e-01 -2.987698018550872803e-01 1.581202000379562378e-01
-2.114834487438201904e-01 -2.101657986640930176e-01 3.270858526229858398e-02
-1.762124449014663696e-01 -2.438733130693435669e-01 5.120446532964706421e-02
-1.533149331808090210e-01 -2.899818122386932373e-01 8.618547022342681885e-02
-1.342704445123672485e-01 -2.668535709381103516e-01 1.602652072906494141e-01
-1.344306468963623047e-01 -2.977354824542999268e-01 1.893021464347839355e-01
-2.122114747762680054e-01 -2.120092660188674927e-01 2.442941069602966309e-01
-2.141266316175460815e-01 -2.028513401746749878e-01 7.681159675121307373e-02
-1.890240013599395752e-01 -2.332354187965393066e-01 3.571911528706550598e-02
-2.089832127094268799e-01 -2.145013064146041870e-01 1.733587533235549927e-01
-1.646642386913299561e-01 -2.538535594940185547e-01 6.137233227491378784e-02
-2.136027067899703979e-01 -2.123722136020660400e-01 4.043945670127868652e-02
-1.219941824674606323e-01 -2.886765897274017334e-01 1.331684589385986328e-01
-2.235609143972396851e-01 -2.157070040702819824e-01 1.305539309978485107e-01
-9.085326641798019409e-02 -3.120255768299102783e-01 2.239046692848205566e-01
-2.117223888635635376e-01 -2.098169475793838501e-01 1.525972783565521240e-01
-7.592827081680297852e-02 -2.800867855548858643e-01 2.552131414413452148e-01
-1.046793237328529358e-01 -2.800819277763366699e-01 1.264327615499496460e-01
-1.386584490537643433e-01 -2.732484340667724609e-01 9.703615307807922363e-02
-9.549504518508911133e-02 -3.134101629257202148e-01 2.132418155670166016e-01
-2.549958229064941406e-01 -2.261267602443695068e-01 1.535627245903015137e-01
-6.812718510627746582e-02 -3.335882127285003662e-01 2.648245394229888916e-01
-2.140447944402694702e-01 -2.109668403863906860e-01 2.167604863643646240e-01
-2.145418673753738403e-01 -1.626799255609512329e-01 9.758036583662033081e-02
-5.612637475132942200e-02 -3.352186083793640137e-01 2.642006278038024902e-01
-1.563057005405426025e-01 -2.988265454769134521e-01 8.942963182926177979e-02
-2.112073898315429688e-01 -2.113949805498123169e-01 3.658686578273773193e-02
-1.585959643125534058e-01 -2.061269134283065796e-01 1.461786031723022461e-01
-2.118192613124847412e-01 -2.086044996976852417e-01 7.416071742773056030e-02
-1.623670160770416260e-01 -2.553268969058990479e-01 6.367681175470352173e-02
-7.269522547721862793e-02 -3.475489616394042969e-01 1.998313069343566895e-01
-2.118593007326126099e-01 -2.119166702032089233e-01 2.191326469182968140e-01
-5.611757561564445496e-02 -3.446527719497680664e-01 2.800509035587310791e-01
-1.730253249406814575e-01 -2.444859296083450317e-01 5.384004488587379456e-02
-1.291294246912002563e-01 -2.828289270401000977e-01 1.183229088783264160e-01
-2.140264064073562622e-01 -2.104300260543823242e-01 1.994524747133255005e-01
-1.665099263191223145e-01 -2.236340343952178955e-01 9.214068949222564697e-02
-9.847545623779296875e-02 -3.126791119575500488e-01 1.902360469102859497e-01
-6.925642490386962891e-02 -2.752029597759246826e-01 1.490661054849624634e-01
-7.266575098037719727e-02 -2.754335403442382812e-01 2.609918415546417236e-01
-1.860861778259277344e-01 -2.346236705780029297e-01 4.099128767848014832e-02
-1.397239267826080322e-01 -2.747714519500732422e-01 1.000035181641578674e-01
-1.583676338195800781e-01 -3.162623047828674316e-01 9.267915785312652588e-02
-9.115776419639587402e-02 -3.447645902633666992e-01 2.606590688228607178e-01
-2.123106122016906738e-01 -2.125190496444702148e-01 6.402865052223205566e-02
-1.391496211290359497e-01 -2.728420495986938477e-01 9.604594856500625610e-02
-9.898322075605392456e-02 -2.796785235404968262e-01 1.273269653320312500e-01
-6.200208887457847595e-02 -3.602805435657501221e-01 2.068599462509155273e-01
-6.583694368600845337e-02 -2.600739300251007080e-01 2.801472246646881104e-01
-2.136593163013458252e-01 -2.082368135452270508e-01 7.334851473569869995e-02
-2.155513465404510498e-01 -2.068533748388290405e-01 2.147593647241592407e-01
-1.714817434549331665e-01 -2.286777645349502563e-01 7.528433948755264282e-02
-8.905896544456481934e-02 -3.377852737903594971e-01 2.566710412502288818e-01
-1.659015268087387085e-01 -2.226338237524032593e-01 9.450957179069519043e-02
-1.052663251757621765e-01 -3.024753630161285400e-01 1.754777282476425171e-01
-2.132212370634078979e-01 -2.122953087091445923e-01 1.112199127674102783e-01
-2.117986083030700684e-01 -2.121229022741317749e-01 1.130508780479431152e-01
-1.609233021736145020e-01 -2.107530981302261353e-01 1.328382045030593872e-01
-2.071936279535293579e-01 -2.147182673215866089e-01 1.059765275567770004e-02
-2.119403481483459473e-01 -2.118636071681976318e-01 1.703831106424331665e-01
-9.599447250366210938e-02 -3.525306284427642822e-01 2.680630683898925781e-01
-1.144720092415809631e-01 -2.942084074020385742e-01 1.467728763818740845e-01
-1.476334035396575928e-01 -3.001805543899536133e-01 2.141612470149993896e-01
-2.141022384166717529e-01 -2.113591730594635010e-01 1.200022548437118530e-01
-1.538452804088592529e-01 -2.998149394989013672e-01 2.249612659215927124e-01
-8.416454493999481201e-02 -3.001779615879058838e-01 2.351862341165542603e-01
-2.137959599494934082e-01 -2.099169194698333740e-01 1.684273332357406616e-01
-2.257405519485473633e-01 -2.146481424570083618e-01 1.328690052032470703e-01
-1.948618441820144653e-01 -2.221353501081466675e-01 1.777172535657882690e-01
-2.225045859813690186e-01 -2.144419252872467041e-01 1.288295537233352661e-01
-2.132370620965957642e-01 -2.123479098081588745e-01 8.180236816406250000e-02
-2.014363259077072144e-01 -2.216023355722427368e-01 1.419886946678161621e-03
-8.312986791133880615e-02 -3.320804238319396973e-01 1.944985240697860718e-01
-6.350035220384597778e-02 -2.561604380607604980e-01 2.854193449020385742e-01
-2.249132394790649414e-01 -2.141900062561035156e-01 1.318217664957046509e-01
-2.128066271543502808e-01 -2.094719260931015015e-01 1.267751306295394897e-01
-5.680229514837265015e-02 -2.719378471374511719e-01 1.574469059705734253e-01
-1.642344594001770020e-01 -2.191502749919891357e-01 1.028753817081451416e-01
-7.879773527383804321e-02 -2.757687568664550781e-01 1.398875415325164795e-01
-2.118652909994125366e-01 -2.119199782609939575e-01 2.177679985761642456e-01
-2.123758643865585327e-01 -2.127516269683837891e-01 1.572110317647457123e-02
-8.121997863054275513e-02 -2.928388118743896484e-01 2.406637966632843018e-01
-2.436336278915405273e-01 -2.219336777925491333e-01 1.440129280090332031e-01
-1.506077200174331665e-01 -2.980212867259979248e-01 2.215843200683593750e-01
-2.138069868087768555e-01 -2.121608406305313110e-01 6.789714843034744263e-02
-1.804618686437606812e-01 -2.325844764709472656e-01 1.791119426488876343e-01
-7.482785731554031372e-02 -2.804928421974182129e-01 2.550934255123138428e-01
-2.117493450641632080e-01 -2.118420004844665527e-01 1.936525553464889526e-01
-2.188701778650283813e-01 -2.049781978130340576e-01 2.175925225019454956e-01
-4.793702438473701477e-02 -2.707282602787017822e-01 1.642267107963562012e-01
-7.662934809923171997e-02 -3.288611471652984619e-01 2.572310566902160645e-01
-8.595943450927734375e-02 -3.295044004917144775e-01 2.492514252662658691e-01
-9.640049189329147339e-02 -3.111764490604400635e-01 2.006138116121292114e-01
-1.434472203254699707e-01 -2.980501949787139893e-01 2.074818909168243408e-01
-1.931899935007095337e-01 -2.292667180299758911e-01 3.134971857070922852e-02
-1.054301187396049500e-01 -2.816141247749328613e-01 1.250927001237869263e-01
-9.402535855770111084e-02 -3.509956300258636475e-01 2.667453885078430176e-01
-8.402340859174728394e-02 -2.997013628482818604e-01 2.340898215770721436e-01
-5.486793816089630127e-02 -3.490188717842102051e-01 2.799724340438842773e-01
-5.000852420926094055e-02 -3.771767616271972656e-01 2.116253972053527832e-01
-9.709078818559646606e-02 -3.568435609340667725e-01 2.725327312946319580e-01
-1.568189114332199097e-01 -2.992542684078216553e-01 2.361543029546737671e-01
-7.589112967252731323e-02 -2.813436090946197510e-01 2.561800479888916016e-01
-2.111859917640686035e-01 -2.107344716787338257e-01 4.183440282940864563e-02
-2.094581723213195801e-01 -2.127518057823181152e-01 1.994101516902446747e-02
-2.116206735372543335e-01 -2.118479460477828979e-01 1.269504725933074951e-01
-6.251823157072067261e-02 -2.535907626152038574e-01 2.885932624340057373e-01
-1.368329524993896484e-01 -2.985305786132812500e-01 1.946993321180343628e-01
-1.595220863819122314e-01 -2.463679611682891846e-01 1.727977395057678223e-01
-1.527935266494750977e-01 -3.003743886947631836e-01 2.250147163867950439e-01
-1.651781350374221802e-01 -3.605262339115142822e-01 1.050626114010810852e-01
-1.609392464160919189e-01 -3.258613944053649902e-01 9.712737053632736206e-02
-1.077331230044364929e-01 -3.000657558441162109e-01 1.662632226943969727e-01
-2.142367362976074219e-01 -2.108878791332244873e-01 1.094020158052444458e-01
-1.904988884925842285e-01 -2.243702858686447144e-01 -1.324317883700132370e-02
-1.123248636722564697e-01 -2.826861441135406494e-01 1.224052235484123230e-01
-8.667767047882080078e-02 -3.352302312850952148e-01 2.535043656826019287e-01
-8.537775278091430664e-02 -3.030361235141754150e-01 2.317383587360382080e-01
-2.115091830492019653e-01 -2.100548744201660156e-01 1.529516875743865967e-01
-2.164595574140548706e-01 -1.538554728031158447e-01 1.008164212107658386e-01
-1.387062668800354004e-01 -2.610178589820861816e-01 1.641564667224884033e-01
-1.965501457452774048e-01 -2.300388365983963013e-01 -1.114342268556356430e-02
-2.139544636011123657e-01 -2.101780772209167480e-01 7.739745080471038818e-02
-2.113627642393112183e-01 -2.111624479293823242e-01 2.050166130065917969e-01
-2.124844193458557129e-01 -2.095270454883575439e-01 5.739916488528251648e-02
-5.016615241765975952e-02 -2.717342972755432129e-01 1.616523563861846924e-01
-5.099523440003395081e-02 -2.731601893901824951e-01 1.613064408302307129e-01
-5.160828307271003723e-02 -3.741395473480224609e-01 2.121640294790267944e-01
-2.112714648246765137e-01 -2.109022289514541626e-01 1.275610327720642090e-01
-2.113204747438430786e-01 -2.110215425491333008e-01 2.287180125713348389e-01
-1.443110406398773193e-01 -2.695201337337493896e-01 9.139017015695571899e-02
-1.339425593614578247e-01 -2.783656120300292969e-01 1.042476296424865723e-01
-9.098129719495773315e-02 -2.778607308864593506e-01 1.318574100732803345e-01
-7.450143247842788696e-02 -2.795525193214416504e-01 2.559939026832580566e-01
-2.112487405538558960e-01 -2.124928534030914307e-01 1.532473135739564896e-02
-2.139748781919479370e-01 -2.113773822784423828e-01 1.866508573293685913e-01
-2.115415781736373901e-01 -2.117567956447601318e-01 1.396155953407287598e-01
-9.605471789836883545e-02 -3.133187592029571533e-01 2.107903063297271729e-01
-8.770275115966796875e-02 -3.202491700649261475e-01 2.330656349658966064e-01
-8.075497299432754517e-02 -2.929394543170928955e-01 2.428911179304122925e-01
-2.135462015867233276e-01 -2.098563313484191895e-01 3.071635589003562927e-02
-7.386429607868194580e-02 -3.453956544399261475e-01 1.989243775606155396e-01
-2.135830521583557129e-01 -2.123375684022903442e-01 5.642618238925933838e-02
-1.209225058555603027e-01 -2.741837799549102783e-01 1.564968377351760864e-01
-1.730249375104904175e-01 -2.343432754278182983e-01 6.506739556789398193e-02
-1.309572905302047729e-01 -2.802620232105255127e-01 1.097901910543441772e-01
-2.504309415817260742e-01 -2.230836749076843262e-01 1.500521898269653320e-01
-2.419914007186889648e-01 -2.203161120414733887e-01 1.428132951259613037e-01
-2.113084495067596436e-01 -2.104368209838867188e-01 1.761657148599624634e-01
-1.485286504030227661e-01 -2.979506254196166992e-01 2.164992392063140869e-01
-2.127819955348968506e-01 -2.094115018844604492e-01 8.270896226167678833e-02
-5.703354626893997192e-02 -3.456068336963653564e-01 2.831261456012725830e-01
-2.133614271879196167e-01 -2.096803933382034302e-01 6.275582313537597656e-02
-7.159437984228134155e-02 -3.322873413562774658e-01 2.602449953556060791e-01
-2.131088227033615112e-01 -2.094934135675430298e-01 2.343116402626037598e-01
-4.556312039494514465e-02 -3.851214945316314697e-01 2.166392356157302856e-01
-1.615824699401855469e-01 -2.144139856100082397e-01 1.232871785759925842e-01
-2.127689868211746216e-01 -2.122978568077087402e-01 1.416469365358352661e-01
-1.450952887535095215e-01 -2.980444729328155518e-01 2.075659036636352539e-01
-1.163245141506195068e-01 -2.962053120136260986e-01 1.474755406379699707e-01
-1.825568079948425293e-01 -2.388393133878707886e-01 4.439343512058258057e-02
-6.053805351257324219e-02 -3.618832230567932129e-01 2.073722332715988159e-01
-1.609545052051544189e-01 -2.107731848955154419e-01 1.268814951181411743e-01
-1.547012925148010254e-01 -2.938123643398284912e-01 8.706822246313095093e-02
-2.140586823225021362e-01 -2.104947268962860107e-01 2.354595810174942017e-01
-6.092012673616409302e-02 -2.729555070400238037e-01 1.554967910051345825e-01
-1.400080621242523193e-01 -2.978044450283050537e-01 1.985991597175598145e-01
-1.216921955347061157e-01 -2.909734547138214111e-01 1.314409226179122925e-01
-1.081926003098487854e-01 -2.999126613140106201e-01 1.630647033452987671e-01
-1.796746999025344849e-01 -2.376538366079330444e-01 4.405212402343750000e-02
-2.469445914030075073e-01 -2.232846021652221680e-01 1.467991173267364502e-01
-2.238099873065948486e-01 -1.991840600967407227e-01 2.226991057395935059e-01
-1.459444314241409302e-01 -2.704118788242340088e-01 8.982148766517639160e-02
-1.271706074476242065e-01 -2.973115146160125732e-01 1.760679781436920166e-01
-1.651062816381454468e-01 -2.185791283845901489e-01 1.026521399617195129e-01
-1.453153192996978760e-01 -2.991497516632080078e-01 2.123188823461532593e-01
-6.888962537050247192e-02 -2.681320309638977051e-01 2.734843492507934570e-01
-2.122789025306701660e-01 -2.125993221998214722e-01 2.729329094290733337e-02
-9.738430380821228027e-02 -3.544455766677856445e-01 2.707736790180206299e-01
-2.409629076719284058e-01 -2.198325246572494507e-01 1.434333324432373047e-01
-5.238228291273117065e-02 -2.722190916538238525e-01 1.627914309501647949e-01
-1.219003796577453613e-01 -2.972848415374755859e-01 1.688084900379180908e-01
-1.661791652441024780e-01 -3.647582232952117920e-01 1.084324941039085388e-01
-2.060424387454986572e-01 -2.177273184061050415e-01 2.343587763607501984e-02
-1.554452180862426758e-01 -2.517094612121582031e-01 1.695884168148040771e-01
-1.995443105697631836e-01 -2.230726331472396851e-01 -1.131416764110326767e-03
-9.525723755359649658e-02 -3.111403286457061768e-01 2.044374793767929077e-01
-6.144109740853309631e-02 -2.520153224468231201e-01 2.907868027687072754e-01
-2.444973587989807129e-02 -3.352380394935607910e-01 2.723876833915710449e-01
-1.564117968082427979e-01 -3.035074174404144287e-01 8.944483101367950439e-02
-2.139142453670501709e-01 -2.100438028573989868e-01 8.862424641847610474e-02
-1.189444810152053833e-01 -2.908814251422882080e-01 1.392503231763839722e-01
-1.120086759328842163e-01 -2.968495488166809082e-01 1.566763073205947876e-01
-1.253550499677658081e-01 -2.867753803730010986e-01 1.217048019170761108e-01
-1.640743762254714966e-01 -2.541430592536926270e-01 6.535877287387847900e-02
-1.289408802986145020e-01 -2.849483191967010498e-01 1.197680532932281494e-01
-5.387222766876220703e-02 -3.475343585014343262e-01 2.786541879177093506e-01
-1.510386615991592407e-01 -2.805086076259613037e-01 8.520835638046264648e-02
-7.188244163990020752e-02 -3.485478460788726807e-01 2.001845091581344604e-01
-2.115936726331710815e-01 -2.117339521646499634e-01 2.012299895286560059e-01
-1.681749075651168823e-01 -2.494168728590011597e-01 5.997568368911743164e-02
-2.349655181169509888e-01 -2.191238999366760254e-01 1.376162171363830566e-01
-9.724769741296768188e-02 -3.120079636573791504e-01 2.068046778440475464e-01
-1.296657025814056396e-01 -2.820146977901458740e-01 1.121551170945167542e-01
-1.684080958366394043e-01 -2.497494518756866455e-01 6.011349335312843323e-02
-8.472371101379394531e-02 -3.272284567356109619e-01 2.473328709602355957e-01
-2.140150070190429688e-01 -2.102613300085067749e-01 1.195616349577903748e-01
-7.672499865293502808e-02 -2.830049991607666016e-01 2.541809380054473877e-01
-6.166873499751091003e-02 -3.404293954372406006e-01 2.716012001037597656e-01
-6.551440060138702393e-02 -2.622663676738739014e-01 2.806200087070465088e-01
-2.121412307024002075e-01 -2.120073735713958740e-01 2.210689932107925415e-01
-2.131307721138000488e-01 -2.123927175998687744e-01 7.899350672960281372e-02
-1.519373804330825806e-01 -2.732631266117095947e-01 8.344405889511108398e-02
-2.123615294694900513e-01 -2.123397141695022583e-01 1.296582072973251343e-01
-2.111678868532180786e-01 -2.107877582311630249e-01 3.552497923374176025e-02
-5.230487138032913208e-02 -3.741354942321777344e-01 2.103628367185592651e-01
-7.153817266225814819e-02 -2.740227580070495605e-01 2.629916667938232422e-01
-2.138862311840057373e-01 -2.114508301019668579e-01 2.155769020318984985e-01
-8.998774737119674683e-02 -3.154923915863037109e-01 2.236515581607818604e-01
-4.746249690651893616e-02 -3.797705769538879395e-01 2.134203761816024780e-01
-1.341439932584762573e-01 -2.640103101730346680e-01 1.612983644008636475e-01
-1.533859074115753174e-01 -2.817486226558685303e-01 8.544534444808959961e-02
-2.130785137414932251e-01 -2.095124274492263794e-01 1.009918525815010071e-01
-2.131905555725097656e-01 -2.096624672412872314e-01 3.633341193199157715e-02
-2.132043093442916870e-01 -2.125189006328582764e-01 3.521279990673065186e-02
-2.536621689796447754e-01 -2.257305234670639038e-01 1.547191590070724487e-01
-2.122994661331176758e-01 -1.974154710769653320e-01 7.929947972297668457e-02
-2.231736034154891968e-01 -1.991070359945297241e-01 2.219091206789016724e-01
-2.124985009431838989e-01 -2.122722119092941284e-01 1.875288635492324829e-01
-7.168566435575485229e-02 -3.314301371574401855e-01 2.605422437191009521e-01
-2.068544775247573853e-01 -2.175492644309997559e-01 8.919470943510532379e-03
-2.141487747430801392e-01 -2.111051827669143677e-01 1.867948472499847412e-01
-1.523250192403793335e-01 -2.650258243083953857e-01 8.064690232276916504e-02
-1.294715404510498047e-01 -2.846286892890930176e-01 1.187409162521362305e-01
-1.214419975876808167e-01 -2.888638675212860107e-01 1.338449120521545410e-01
-1.466169208288192749e-01 -2.978808283805847168e-01 2.123476415872573853e-01
-1.539160013198852539e-01 -2.875135838985443115e-01 8.573400229215621948e-02
-2.122876793146133423e-01 -2.095857411623001099e-01 6.015348806977272034e-02
-1.390193998813629150e-01 -2.732506990432739258e-01 9.837380051612854004e-02
-1.643492281436920166e-01 -2.538149356842041016e-01 6.502825766801834106e-02
-1.256856322288513184e-01 -2.708902657032012939e-01 1.586789637804031372e-01
-1.407856941223144531e-01 -2.623689770698547363e-01 1.644533425569534302e-01
-1.519352197647094727e-01 -2.840817272663116455e-01 8.502224087715148926e-02
-9.075707197189331055e-02 -3.178077042102813721e-01 2.250532805919647217e-01
-2.056615203619003296e-01 -2.168697714805603027e-01 1.747975945472717285e-01
-9.902034699916839600e-02 -3.091123104095458984e-01 1.991515755653381348e-01
-6.105346232652664185e-02 -2.527296841144561768e-01 2.930744886398315430e-01
-7.481259107589721680e-02 -2.784747779369354248e-01 2.569009363651275635e-01
-5.195152759552001953e-02 -3.337974846363067627e-01 2.646411359310150146e-01
-2.132837623357772827e-01 -1.780928373336791992e-01 8.848427236080169678e-02
-7.654415071010589600e-02 -2.832891941070556641e-01 2.514158487319946289e-01
-1.598912328481674194e-01 -3.304748833179473877e-01 9.671505540609359741e-02
-8.368013799190521240e-02 -2.971635758876800537e-01 2.359499335289001465e-01
-1.630285829305648804e-01 -2.176954895257949829e-01 1.077114343643188477e-01
-1.185898482799530029e-01 -2.974749803543090820e-01 1.646328270435333252e-01
-6.003247201442718506e-02 -2.508201599121093750e-01 2.954606711864471436e-01
-7.917173951864242554e-02 -2.882513105869293213e-01 2.456226646900177002e-01
-1.508219689130783081e-01 -2.535586953163146973e-01 1.675622910261154175e-01
-7.564928382635116577e-02 -3.280905485153198242e-01 2.565672993659973145e-01
-8.012494444847106934e-02 -3.271195888519287109e-01 2.499058395624160767e-01
-7.082150131464004517e-02 -3.496325314044952393e-01 2.023769617080688477e-01
-1.359243839979171753e-01 -2.755423188209533691e-01 1.023733317852020264e-01
-1.732967495918273926e-01 -2.432354390621185303e-01 5.113236606121063232e-02
-1.234707310795783997e-01 -2.864403426647186279e-01 1.256433725357055664e-01
-1.351158469915390015e-01 -2.794573307037353516e-01 1.044921278953552246e-01
-1.360192149877548218e-01 -2.628680169582366943e-01 1.628844738006591797e-01
-1.378324925899505615e-01 -2.620153427124023438e-01 1.619660556316375732e-01
-1.835494786500930786e-01 -2.352529615163803101e-01 3.928563743829727173e-02
-8.844471722841262817e-02 -3.388221561908721924e-01 2.565903067588806152e-01
-1.878660172224044800e-01 -2.305475622415542603e-01 3.602636232972145081e-02
-1.669680774211883545e-01 -3.671283721923828125e-01 1.076233088970184326e-01
-2.117975950241088867e-01 -2.121583819389343262e-01 9.419284015893936157e-02
-1.405968368053436279e-01 -2.750741839408874512e-01 9.593019634485244751e-02
-7.231831550598144531e-02 -3.327783048152923584e-01 2.632596492767333984e-01
-9.254608303308486938e-02 -3.178162276744842529e-01 1.912683993577957153e-01
-2.508645355701446533e-01 -2.238228172063827515e-01 1.521346271038055420e-01
-1.602120697498321533e-01 -2.131245136260986328e-01 1.233157292008399963e-01
-2.580430507659912109e-01 -2.272360622882843018e-01 1.562711894512176514e-01
-1.569819301366806030e-01 -3.119530379772186279e-01 9.165915846824645996e-02
-1.499635428190231323e-01 -2.986079752445220947e-01 2.218056470155715942e-01
-1.683691143989562988e-01 -2.476841807365417480e-01 5.775723606348037720e-02
-2.141677439212799072e-01 -2.112477272748947144e-01 1.039725318551063538e-01
-1.191215589642524719e-01 -2.823357582092285156e-01 1.199716553092002869e-01
-1.608408987522125244e-01 -2.125190496444702148e-01 1.293139457702636719e-01
-9.581425040960311890e-02 -3.107368350028991699e-01 2.070277631282806396e-01
-9.198945015668869019e-02 -3.213929235935211182e-01 1.916749477386474609e-01
-1.558253914117813110e-01 -2.981005012989044189e-01 8.824927359819412231e-02
-1.135205402970314026e-01 -2.980906665325164795e-01 1.559534966945648193e-01
-8.410259336233139038e-02 -3.231261372566223145e-01 2.409098595380783081e-01
-2.123771607875823975e-01 -2.120848894119262695e-01 2.210441976785659790e-01
-2.128300964832305908e-01 -2.124925404787063599e-01 8.353819698095321655e-02
-1.578018218278884888e-01 -2.477585822343826294e-01 1.729842126369476318e-01
-1.578270345926284790e-01 -2.601464092731475830e-01 7.078850269317626953e-02
-2.132286280393600464e-01 -2.123097777366638184e-01 1.020776554942131042e-01
-2.011729180812835693e-01 -2.217216193675994873e-01 1.085035037249326706e-03
-8.731433749198913574e-02 -3.033725023269653320e-01 2.299302220344543457e-01
-1.433727294206619263e-01 -2.578791379928588867e-01 1.648194044828414917e-01
-1.645197421312332153e-01 -3.489452302455902100e-01 1.018523275852203369e-01
-2.136035859584808350e-01 -1.651054024696350098e-01 9.542804211378097534e-02
-2.138463705778121948e-01 -2.115466743707656860e-01 2.430561333894729614e-01
-1.381140947341918945e-01 -2.978580296039581299e-01 1.938972771167755127e-01
-2.138651609420776367e-01 -2.115202993154525757e-01 2.124628871679306030e-01
-2.104985117912292480e-01 -2.142233848571777344e-01 1.292886305600404739e-02
-1.439969092607498169e-01 -2.596805989742279053e-01 1.643518805503845215e-01
-1.232380270957946777e-01 -2.842003405094146729e-01 1.189544275403022766e-01
-1.321934610605239868e-01 -2.824940979480743408e-01 1.130068674683570862e-01
-8.367525786161422729e-02 -3.331119716167449951e-01 1.955054849386215210e-01
-2.113858163356781006e-01 -2.119033932685852051e-01 4.721419513225555420e-02
-9.383580088615417480e-02 -2.784273326396942139e-01 1.301098018884658813e-01
-1.253408938646316528e-01 -2.869954705238342285e-01 1.219940185546875000e-01
-7.279090583324432373e-02 -2.756070196628570557e-01 1.432826519012451172e-01
-6.091354042291641235e-02 -3.348870277404785156e-01 2.636683583259582520e-01
-1.170069575309753418e-01 -2.919425666332244873e-01 1.412656605243682861e-01
-2.107195854187011719e-01 -2.109586745500564575e-01 8.573929779231548309e-03
-1.175834685564041138e-01 -2.940495312213897705e-01 1.455335021018981934e-01
-1.250440329313278198e-01 -2.866669595241546631e-01 1.271903812885284424e-01
-2.141934931278228760e-01 -2.114351391792297363e-01 4.916804656386375427e-02
-1.713042855262756348e-01 -2.288299798965454102e-01 7.403757423162460327e-02
-2.134827822446823120e-01 -2.121903449296951294e-01 1.165629401803016663e-01
-1.540961414575576782e-01 -2.891679704189300537e-01 8.791328966617584229e-02
-1.407600194215774536e-01 -2.714357972145080566e-01 9.358274191617965698e-02
-9.221899509429931641e-02 -3.444348275661468506e-01 2.601585984230041504e-01
-2.128289788961410522e-01 -2.093858271837234497e-01 1.064475625753402710e-01
-1.387726366519927979e-01 -2.762371897697448730e-01 1.015247404575347900e-01
-2.130839526653289795e-01 -1.969324648380279541e-01 7.875679433345794678e-02
-2.139061838388442993e-01 -2.117923945188522339e-01 1.131050437688827515e-01
-1.339133977890014648e-01 -2.811225056648254395e-01 1.085428148508071899e-01
-9.360030293464660645e-02 -3.156918883323669434e-01 2.172457277774810791e-01
-1.384758055210113525e-01 -2.733765244483947754e-01 9.763532876968383789e-02
-1.929023414850234985e-01 -2.278184890747070312e-01 3.053849749267101288e-02
-1.226708143949508667e-01 -2.829417288303375244e-01 1.204425618052482605e-01
-1.965291351079940796e-01 -2.260784655809402466e-01 -3.205718239769339561e-03
-2.118770331144332886e-01 -2.096851170063018799e-01 1.262436956167221069e-01
-1.631456017494201660e-01 -3.508734107017517090e-01 1.039575412869453430e-01
-7.925642281770706177e-02 -2.895448803901672363e-01 2.467625290155410767e-01
-1.653433740139007568e-01 -3.515653610229492188e-01 1.030239164829254150e-01
-1.515324115753173828e-01 -2.837240099906921387e-01 8.576751500368118286e-02
-1.645140051841735840e-01 -2.529560625553131104e-01 6.064155325293540955e-02
-2.133101075887680054e-01 -2.122803777456283569e-01 1.335416883230209351e-01
-2.141234874725341797e-01 -2.109431773424148560e-01 1.510990709066390991e-01
-1.692352294921875000e-01 -2.279187589883804321e-01 7.819329947233200073e-02
-6.113724038004875183e-02 -3.413819968700408936e-01 2.721303105354309082e-01
-2.113131731748580933e-01 -2.110187113285064697e-01 2.166237533092498779e-01
-3.526196628808975220e-02 -2.699309587478637695e-01 1.753444820642471313e-01
-7.499700039625167847e-02 -3.311707973480224609e-01 2.569836080074310303e-01
-9.303916990756988525e-02 -3.171945512294769287e-01 1.910439282655715942e-01
-8.438123762607574463e-02 -3.299443125724792480e-01 2.500396370887756348e-01
-1.455703228712081909e-01 -2.570381164550781250e-01 1.677733063697814941e-01
-1.119601130485534668e-01 -2.971264421939849854e-01 1.574423611164093018e-01
-2.148093730211257935e-01 -1.508200764656066895e-01 1.031451523303985596e-01
-1.977322697639465332e-01 -2.237630188465118408e-01 -3.101433860138058662e-03
-1.421585232019424438e-01 -2.610816657543182373e-01 1.635291129350662231e-01
-2.137188464403152466e-01 -2.118581980466842651e-01 1.468789875507354736e-01
-1.618215888738632202e-01 -3.389580845832824707e-01 9.887950867414474487e-02
-5.625471100211143494e-02 -3.711431324481964111e-01 2.094825804233551025e-01
-4.081432521343231201e-02 -3.343866169452667236e-01 2.662056088447570801e-01
-1.583617478609085083e-01 -2.053630948066711426e-01 1.463821381330490112e-01
-6.962557137012481689e-02 -2.699619829654693604e-01 2.681050002574920654e-01
-2.131569087505340576e-01 -2.125114649534225464e-01 4.379433020949363708e-02
-4.682588577270507812e-02 -2.704896628856658936e-01 1.652337312698364258e-01
-2.237940430641174316e-01 -2.136835753917694092e-01 1.307464689016342163e-01
-1.356038898229598999e-01 -2.658726274967193604e-01 1.623343825340270996e-01
-2.147483825683593750e-01 -1.721093654632568359e-01 9.104657918214797974e-02
-5.418083444237709045e-02 -2.736539542675018311e-01 1.605847924947738647e-01
-2.062585204839706421e-01 -2.148843556642532349e-01 2.000263147056102753e-02
-1.324818730354309082e-01 -2.652196884155273438e-01 1.604200601577758789e-01
-2.121001631021499634e-01 -2.117314189672470093e-01 1.455738209187984467e-02
-1.265249699354171753e-01 -2.855302989482879639e-01 1.241850852966308594e-01
-2.128710150718688965e-01 -1.842705756425857544e-01 8.655074983835220337e-02
-1.615781933069229126e-01 -3.424805998802185059e-01 1.013375297188758850e-01
-4.936412721872329712e-02 -2.718716859817504883e-01 1.622324436902999878e-01
-1.195589751005172729e-01 -2.752722501754760742e-01 1.555493772029876709e-01
-7.929293811321258545e-02 -3.271802365779876709e-01 2.533381581306457520e-01
-1.992574185132980347e-01 -2.222244888544082642e-01 1.767845009453594685e-03
-2.112978845834732056e-01 -2.113396823406219482e-01 1.499893963336944580e-01
-2.121276855468750000e-01 -2.123153060674667358e-01 9.261272102594375610e-02
-1.672809123992919922e-01 -2.486000210046768188e-01 5.897847935557365417e-02
-3.438736498355865479e-02 -3.342452049255371094e-01 2.696192562580108643e-01
-1.320770382881164551e-01 -2.810040116310119629e-01 1.084187775850296021e-01
